286, 284.5, 282.25, 280.5, 279.75, 278, 275.25, 274.5, 272.5, 271.25, 269.75, 267.25, 264, 262.5, 259.25, 257.5, 255.5, 253, 250.25, 246.25, 243, 239, 235.75, 232.75, 230, 225.5, 222, 218, 214.25, 210, 206, 202, 198, 194.5, 191, 186.75, 183, 178.25, 175, 172.5, 170, 167, 165, 162, 160.5, 159.75, 158.5, 157.25, 155.25, 153, 151.25, 150.5, 150.75, 150.5, 150, 149, 148, 147.75, 147.5, 146.75, 145.75, 144.75, 144.75, 144.25, 143.5, 143.5, 142.75, 143, 143.25, 144, 143.5, 143.5, 143, 142.25, 141.25, 141, 141, 141.5, 140, 140, 139.75, 140.25, 140.5, 140.75, 140.5, 140, 139.25, 139.75, 139.25, 138.75, 138.5, 138.75, 138.5, 138.5, 138.75, 138.5, 138.25, 138, 138.25, 137.25, 137, 136.75, 136.75, 137, 137.25, 136.5, 135.75, 135.75, 136, 136.75, 137, 137.5, 138.25, 138.5, 138, 137.75, 137.25, 138.25, 138.25, 138.5, 137.75, 137.75, 138.25, 137.25, 137.25, 137, 138, 138, 139, 137.5, 137.5, 138, 138.5, 138.5, 139.75, 139, 139.25, 139.25, 139, 138.75, 138.75, 138, 138, 138.5, 139, 139.25, 139, 139.25, 138.5, 138.75, 138.75, 138.75, 139, 139, 139.5, 139.75, 139.5, 139.5, 139.75, 139.5, 139.75, 139.5, 139.25, 139.5, 139.5, 139.25, 139, 139.25, 139.5, 140.5, 140, 140.5, 140.5, 140, 140, 140.5, 139.75, 139.5, 139.75, 140.5, 139.5, 139.25, 138.75, 139.75, 140.5, 139.75, 139.75, 139.5, 139.25, 139.25, 139.75, 140, 140.25, 140.75, 141.5, 142.25, 142.5, 142.75, 143, 143, 143.75, 144.75, 144.25, 144.5, 144.5, 145.5, 146, 145.75, 146.25, 147.25, 148.75, 149.25, 150.75, 151.5, 153, 154.5, 156, 157, 158.5, 161, 163.75, 167.25, 170.75, 174.5, 178.75, 182.5, 187.25, 192.25, 197.75, 203, 208.5, 213.5, 219.75, 226, 230.75, 234.25, 237.25, 239.75, 242, 245, 247.25, 249.75, 251.25, 253.5, 255.25, 257.25, 258.75, 259.75, 261, 261.75, 262.5, 262.5, 263, 263.5, 263.75, 263.25, 263.5, 264, 264.75, 265.25, 266, 265.75, 266, 266.25, 267, 267.5, 267.25, 267.75, 268.75, 268.75, 268, 267.75, 268, 268.25, 268.5, 268.75, 269, 269.25, 269, 269, 269.5, 269.75, 270, 269.5, 269.25, 269.5, 269.75, 269.75, 270, 270.75, 271.75, 271.75, 271.25, 272, 272.25, 272.5, 272.5, 272.5, 272, 271.5, 271, 270.5, 270.5, 270.25, 270.5, 271, 270.75, 270.25, 269.5, 269.5, 270, 270.5, 270.25, 269.75, 269.75, 269.25, 269.25, 269, 269.25, 269, 269.25, 268.75, 268.5, 267.75, 268.5, 269.75, 270.75, 270.75, 270.25, 269.75, 270, 270.5, 270.5, 270.5, 269.75, 269.5, 270, 270.25, 269.75, 270, 271.25, 272.75, 274, 274.75, 275.5, 275.5, 275.25, 275, 275.5, 274.5, 274, 273.5, 274.5, 274.25, 273.5, 273, 272.5, 271.25, 271, 271.5, 271.75, 271.75, 272.25, 273.5, 274.5, 274.75, 274.25, 273.75, 274, 273.75, 273, 272.75, 272.25, 271.75, 271.25, 270.25, 270, 270, 268.5, 266.75, 265, 263.75, 262.75, 261.25, 259.5, 257.25, 255.25, 252.75, 250.75, 249, 246, 242.5, 238, 233.75, 229, 223.5, 217.75, 212, 206, 199.5, 193.25, 188, 183, 178.5, 175, 170.75, 167.75, 164.75, 162.5, 159.75, 158, 155.75, 154.75, 153.5, 151.75, 150.5, 149.75, 148.25, 147, 145.5, 145, 144.25
289.75, 287.75, 286, 284.75, 283.5, 281.75, 280.25, 277.75, 276.5, 275.25, 274, 271.5, 269, 265.75, 263.75, 262, 259.75, 256.75, 253.75, 250.5, 247, 243.5, 240, 237, 232.5, 229.75, 226, 221.75, 218.25, 214, 209.5, 205, 201, 197.5, 194.25, 190.25, 185.75, 181.25, 178.25, 175.25, 172.25, 170, 167, 164.5, 162.5, 161.25, 160.25, 158, 155.75, 154, 152.5, 151, 151.75, 151.5, 151, 150, 149.75, 149.5, 148.75, 148.5, 147.5, 147, 145.75, 146.25, 145, 144.5, 144.5, 143.75, 145.25, 145.75, 145.25, 145, 144, 143.5, 142.25, 142.25, 142.5, 142.5, 142.75, 141.25, 141.5, 141.5, 142.5, 142.75, 142, 141.5, 141.75, 141.25, 140.5, 140.25, 139.25, 139.75, 140, 140, 139.5, 139.75, 139.5, 140.25, 140, 139.5, 138.5, 138.5, 138.75, 138.25, 138.5, 138.25, 137.25, 136.75, 138.25, 138.75, 138.75, 139, 140, 139.75, 139.5, 138.5, 138.75, 138.75, 139, 139.25, 139, 139, 138, 138.25, 138.25, 138.5, 138.25, 139.75, 140, 139.25, 138.75, 139.25, 139.25, 139.75, 140.25, 140.5, 140.25, 140.25, 139.5, 140.25, 139.75, 139.75, 139.5, 140, 140.25, 141, 141, 140.75, 140.5, 139.25, 140, 140.25, 140, 140.25, 140.25, 140.5, 141.25, 141, 141, 141.25, 140.75, 140.5, 140.5, 141.25, 141.5, 141.75, 141.5, 141, 141.5, 141.25, 141.5, 141.25, 141.25, 141.5, 141, 141.25, 141.25, 141, 141.25, 141.5, 141.5, 140.5, 141, 141.25, 142, 142, 140.75, 140.75, 140.5, 140.5, 141, 141, 141.75, 142, 143.25, 144, 144.5, 144.25, 144.5, 144.5, 145.5, 146, 146.5, 146, 146.75, 147.25, 147.75, 148.25, 147.75, 149.5, 150.75, 151.5, 151.75, 153.5, 154.75, 156.25, 158.25, 159, 161.25, 163.25, 166, 169.25, 173, 176.75, 181.25, 186.5, 190.25, 195.25, 201, 206, 211.25, 217.25, 223, 229.5, 234, 237.5, 239.75, 242, 244.25, 246.25, 249.5, 251.5, 253.75, 256, 259, 261.25, 262.75, 264, 265.5, 265.75, 266, 266.25, 266, 267, 267.25, 267.5, 267.25, 268, 267.75, 268.5, 269, 269.5, 269.5, 270, 270.75, 271.25, 271.5, 271.5, 272, 272.25, 271.5, 271, 271, 271.5, 271.75, 272, 271.75, 271.75, 271.75, 271.75, 272.5, 272.75, 273.25, 273, 272.5, 272.75, 273, 273, 272.75, 274, 274, 274.5, 274.25, 274.5, 275.25, 275.5, 275.25, 275.75, 275.75, 275, 274.25, 274.25, 273.75, 273.75, 273.75, 274.25, 274, 273.25, 273, 273.25, 273.5, 273.75, 273.75, 273.5, 273.25, 273, 272.25, 272.25, 272.25, 272.75, 272.25, 271.75, 271.5, 272, 272.75, 273.75, 274.25, 274.5, 274.25, 273.5, 274, 274.25, 274.5, 274.25, 273.75, 273.25, 274, 273.75, 273.25, 272.75, 273.75, 275, 277.25, 278.5, 279, 279, 278.75, 279.25, 279.5, 278.75, 277.5, 277.5, 277.5, 277.5, 276.75, 275.5, 275.25, 275, 275.5, 275.75, 275.75, 276, 276.25, 276.75, 277.5, 277.75, 277.5, 276.75, 277, 276.5, 276, 275, 274.75, 274.5, 274.25, 273.25, 273, 273.25, 272, 270.5, 268.5, 267.75, 266.5, 265.5, 263.75, 262.25, 260.5, 258, 255.5, 253.25, 250.25, 246.25, 241.25, 236.5, 231.75, 227, 220.75, 214.5, 208.75, 201.75, 196.25, 190.5, 185.25, 181, 177, 174, 169.75, 166.75, 164, 162, 160, 158.5, 156.25, 154.5, 153.25, 152.25, 150.5, 149.25, 148, 147.75, 146.5, 146
292, 290.5, 289, 288.75, 287.25, 285.5, 284, 282.5, 280.75, 279.75, 277.75, 275.75, 273.5, 270.75, 268.75, 266.25, 263, 261, 257.25, 254.25, 251.75, 247.75, 244.25, 240, 237, 233.25, 229.25, 224.75, 221.25, 217.75, 212.5, 207.75, 203.75, 200, 197.25, 193, 189, 185, 181, 177.75, 174.75, 172.5, 169.5, 167.25, 165.75, 162.5, 161, 159, 157, 156, 154.25, 153.25, 152.75, 152.75, 152, 151.5, 151.75, 151, 150.5, 149.5, 149.75, 148, 147.75, 147, 146.75, 145.75, 145.5, 146, 146.25, 147.25, 147.25, 145.75, 145.75, 144.75, 144, 144, 144.25, 144.5, 143.75, 144, 143.5, 144, 143.75, 144, 143.75, 143.5, 143.25, 142.75, 142, 141.5, 141, 141, 141.5, 141.25, 141.25, 141.25, 141.75, 141.25, 141.25, 141.25, 140.25, 139.75, 140, 139.75, 139.75, 139.5, 138.75, 139.5, 140, 140.75, 140.5, 140.75, 140.5, 140.5, 140.25, 139.5, 138.75, 139.5, 140, 139.25, 139.5, 140, 140.5, 140.25, 140, 139, 140.5, 141.25, 141.25, 141.5, 141.25, 140.25, 141, 141.25, 141.75, 141.5, 141.75, 140.75, 141.25, 141, 141.5, 141.25, 141.25, 141.5, 142.5, 142.25, 142.25, 142, 142.25, 141.5, 140.75, 141.75, 141.25, 141.5, 141.75, 142, 143.25, 142.75, 143.25, 143.25, 142.25, 142, 142.5, 143.25, 142.75, 143.25, 143, 143, 142, 142.25, 141.75, 142, 142.5, 143, 143.25, 142.25, 142.25, 142.25, 142.75, 143.5, 142.75, 142.75, 142.75, 143.25, 143.5, 143, 142.5, 141.5, 142.25, 142, 142, 142.5, 142.75, 143.25, 144.5, 145.25, 145.5, 145.75, 145.25, 145.75, 146.5, 147.5, 148, 148, 148.75, 149.5, 150.25, 150, 150.75, 151.75, 153.5, 153.75, 154, 155, 156.5, 158.5, 160, 161.75, 163, 165.5, 168.25, 171.75, 174.75, 179, 184, 188.5, 193.5, 198.25, 204, 209, 214.5, 220.25, 227, 233, 238.25, 241.5, 243.75, 245.25, 247.25, 250, 252, 254.25, 256.25, 259.25, 262, 264.25, 266.25, 267.75, 269, 269.75, 269.75, 269.25, 269.75, 270.5, 271.25, 271.25, 271.5, 271, 271.25, 271.25, 272.25, 272.75, 273, 273.75, 274.25, 274.75, 275, 275.25, 275.25, 275.25, 274.75, 274.25, 274.25, 274.5, 275.5, 275.5, 275, 274.75, 274.5, 274.75, 275.25, 276.25, 276.25, 276.25, 276, 276, 276.25, 276.25, 276.5, 276.75, 277.25, 277, 277.5, 277.5, 278, 278, 278.25, 279, 279, 278.25, 278, 277.75, 277.75, 277.5, 278, 277.5, 277.25, 276.5, 276.5, 277, 277.25, 277.5, 277.5, 277.25, 277.25, 276.5, 276, 276, 276.5, 276.5, 276.5, 276, 275.75, 275.75, 276.75, 277.75, 278.5, 278.25, 278.5, 278.5, 278.75, 278.5, 278.75, 278, 277.75, 277.5, 277.75, 277.5, 277, 276.5, 276.75, 278.25, 280, 281.5, 282, 282.25, 282.25, 283, 283, 282, 281.75, 281.25, 281.25, 280.5, 279.75, 279, 278.5, 278.75, 279.25, 280.25, 280.5, 280.25, 280, 280.25, 280.75, 281, 280.75, 280, 279.75, 279.75, 279, 278, 277.5, 277.5, 276.75, 276.25, 276.5, 276.5, 276, 274, 273, 272, 271.25, 269.75, 268.5, 267.75, 265.5, 263.25, 260.75, 257.5, 254, 249.25, 245, 239.75, 235, 229.5, 224, 217.75, 211.75, 205.75, 198.75, 193.25, 188.25, 183.75, 180, 175.75, 172, 169, 166.25, 163.5, 161.75, 160, 158.25, 156, 154.75, 153.25, 152, 150.75, 150, 149.25, 149.25, 147.75
295, 293.75, 293, 291.75, 290.75, 289.25, 287.75, 286, 284.5, 283, 281.75, 279.75, 277.25, 275.5, 273.5, 270.25, 267.25, 264.75, 262, 258.75, 256.25, 252.25, 248.25, 244.75, 240.25, 236.75, 233.25, 229.75, 225, 220.5, 216.75, 211.75, 206.75, 203.25, 200, 196.75, 191.75, 187.5, 184, 180, 177.75, 174.75, 172.5, 170, 167.75, 165.25, 162.5, 160.75, 159.5, 157.5, 156.25, 155.5, 154.75, 154.5, 153.75, 153.75, 153.5, 152.5, 151.75, 151.5, 150.25, 150.5, 149.5, 147.75, 148.25, 147.75, 147.25, 148, 147.75, 148.25, 148.25, 148, 147.5, 146.5, 146, 145.75, 146.75, 145.75, 145.75, 145.5, 145.75, 145.75, 145.5, 145.5, 145.25, 145, 144.75, 144, 143.75, 142.5, 142.5, 142.5, 142.25, 142.5, 142.75, 143, 143, 142.25, 142.5, 141.75, 141.25, 141, 141, 141.25, 140.5, 141, 141, 141.75, 142.25, 142.5, 142.75, 142.25, 142, 141.75, 141.5, 140.5, 140.25, 140, 140.5, 141, 141, 142, 142.5, 142.75, 141.75, 141.5, 141.25, 142.75, 142.5, 142.75, 143, 142.75, 142.5, 143, 142.75, 143.5, 143.25, 143, 142.5, 142.75, 143, 143.25, 143.5, 143.5, 143.5, 144, 143.75, 144, 143.75, 143.5, 143, 143.25, 143.5, 143.25, 143.75, 144.5, 144.75, 145.5, 145.5, 144.25, 144, 143.25, 144.25, 144, 144.25, 143.5, 143.75, 143.75, 143.5, 142.5, 143, 143.5, 144.25, 144.75, 144, 143.75, 143.5, 143.75, 144, 144.25, 144.25, 144, 143.75, 144.75, 144.75, 144.25, 143.75, 144, 143.75, 143.75, 143.75, 143.75, 144, 145.25, 146, 146.75, 147, 147, 147, 147, 148.25, 148.75, 149.25, 150, 150.5, 151.75, 152, 152, 152.25, 154, 155, 156, 156, 156, 157.5, 159.25, 161.5, 163.25, 165, 166.75, 170.5, 173.75, 177.25, 181, 185.75, 191, 195.75, 201, 206.25, 212, 217.5, 223.75, 230.25, 237, 241.75, 246, 248.25, 249.75, 251.5, 253.75, 256.25, 257.5, 260, 262.75, 265.25, 267.5, 269.5, 271.25, 272.75, 273.25, 273.25, 272.75, 273, 274, 274.25, 275, 275.25, 275, 274.75, 274.75, 275.25, 276.25, 276.5, 276.75, 277.75, 278.25, 278.25, 278.25, 278.5, 278.5, 278.25, 277.75, 277.75, 278.25, 278.75, 278.75, 278.25, 277.75, 277.75, 277.25, 278.25, 279.25, 279.75, 279.5, 279.5, 279.75, 279.75, 280.25, 280.25, 280.75, 280.5, 280.5, 280.5, 281, 281, 281, 281.75, 282.25, 281.75, 281.5, 280.75, 281.25, 280.75, 281.25, 281.25, 281, 280.25, 279.75, 279.75, 280.25, 281, 281.25, 281.25, 281.5, 281, 280.5, 279.5, 280, 280.75, 281, 280.75, 281, 280.25, 280, 280.75, 282, 283, 283, 283, 283.75, 283.25, 283.5, 283, 282.25, 281.5, 281.25, 281, 281, 280.75, 279.75, 280, 281, 283, 283.75, 284.75, 284.75, 285, 285.75, 286, 285.5, 284.75, 284.5, 284.75, 283.75, 282.75, 282.25, 282, 282.25, 282.75, 284, 284.5, 284, 283.75, 283.75, 284, 283.75, 284.25, 284, 283.5, 282.75, 282.25, 282, 282.25, 281.5, 280.75, 280, 280, 280.25, 279.75, 278.25, 277, 276.75, 275.5, 274.5, 273, 271.75, 270.25, 267.75, 264.75, 261.5, 257.75, 253.75, 248.25, 243.5, 238, 232.5, 227, 220.75, 214.25, 208, 202, 195.75, 190.75, 185.75, 181.75, 178.5, 174.25, 171.25, 168, 165.5, 163.5, 161.75, 159, 157.75, 156.25, 154.75, 153.5, 152.5, 152, 151.25, 150.75, 149.75
297.75, 297.25, 296.5, 295, 294.25, 293.25, 290.75, 289.5, 288, 286.75, 284.5, 282.75, 281, 279.75, 277, 274.5, 271.5, 268.5, 266.5, 264, 260.25, 257, 252.75, 248.5, 245.25, 240.75, 237.75, 234.25, 229.5, 225.5, 220.5, 215.5, 211.75, 206.75, 203.75, 199.75, 195.5, 191.25, 186.25, 183.75, 180, 177.25, 175.25, 172.5, 169.75, 167, 165, 162.75, 161.5, 159.5, 158.75, 157.5, 156.5, 155.75, 155, 154.75, 155.5, 154, 153.25, 151.75, 152, 152.25, 151.25, 149.75, 149.5, 150.25, 149.5, 149.5, 150, 149.5, 149, 148.75, 149, 148.5, 147.75, 147.75, 147.75, 148.5, 147.25, 147.25, 147.5, 147.5, 147.25, 146.5, 146.5, 146.25, 146.25, 146, 144.75, 144, 144.25, 144, 143.5, 143.5, 143.75, 143.75, 143.75, 144, 143.25, 143, 142.75, 142.75, 142.75, 142.75, 143, 143.25, 144, 143.75, 144.5, 145, 145, 144.25, 143.5, 143, 142.25, 142, 141.75, 142.25, 141.75, 142.25, 142.75, 143.75, 144.25, 144, 143.5, 142.75, 142.5, 142.75, 143.75, 143.5, 143.25, 144, 143.5, 143.75, 144.75, 144.75, 144.75, 144.5, 144.75, 145, 145, 144.75, 145.25, 145, 145.25, 145.25, 145, 145.25, 145.25, 145.25, 145.75, 145.5, 145.75, 145.5, 146, 146.25, 146.25, 146.75, 146.25, 145.5, 145.5, 145.75, 145, 145, 145, 145.25, 145.75, 146, 144.5, 144.5, 144.5, 145.25, 146.25, 146.25, 146, 145, 145.25, 145.25, 145.25, 145.25, 145.5, 145, 145.5, 146, 146.5, 146, 146, 145.5, 145.5, 146, 146, 145.5, 146.25, 147, 147.75, 148.25, 149, 148.75, 149.5, 149.5, 149.75, 150.5, 151.25, 151.75, 152.25, 153, 154, 153.25, 153.75, 154.75, 157, 156.5, 156.75, 157.5, 158.5, 160.5, 162.25, 164.5, 166, 169.5, 172, 175.75, 179.5, 182.75, 188.25, 193.25, 198, 203, 209.25, 214.75, 220.75, 226.25, 233.75, 240.5, 246.25, 249.5, 252.25, 253.75, 255.25, 258, 260.25, 262.5, 264, 266.25, 268.75, 271, 273, 275, 276, 276.5, 276.5, 276.75, 276.75, 276.75, 277.75, 278.5, 279, 279, 278.5, 278.75, 279, 279.75, 280.25, 280, 280.75, 282, 281.5, 281.5, 281.75, 282, 282, 281.5, 281.5, 281.75, 282, 282, 281.5, 281.5, 281, 281.25, 281.25, 282.5, 283, 283, 283.25, 283.5, 283.75, 284, 284.25, 283.75, 284, 283.5, 283.25, 283.25, 283.75, 284, 284.75, 285, 285, 283.75, 283.5, 283.25, 284.25, 284, 284.5, 284.25, 283.25, 282.75, 283.25, 284, 284.75, 284.75, 285.5, 285.75, 285.75, 284.75, 284, 284, 285, 285.5, 286, 285.25, 284.75, 284.5, 285.5, 286.5, 287.5, 287.5, 287.75, 288.25, 288.25, 288, 286.75, 286.25, 285.75, 285, 284.25, 284.5, 284.25, 284, 283.25, 284.25, 285, 286.5, 287, 287.25, 287.75, 288.25, 288.25, 287.75, 287.5, 287.25, 287.25, 286.75, 286, 285.5, 285.5, 286, 286.5, 287.25, 287.5, 287.75, 287.75, 286.5, 286.5, 287.25, 287.75, 287.25, 286.25, 286.75, 286.25, 286.5, 286.5, 286.5, 285.25, 284.25, 283.5, 284, 283.5, 282.5, 281.5, 280.25, 280, 278.5, 277, 275.75, 274.25, 271.5, 268.5, 265.25, 262.25, 257.5, 252.5, 246.75, 241.5, 235.5, 229.75, 223, 216.25, 210, 204, 198.25, 192.75, 188, 184.25, 180, 176.5, 173, 170.75, 167.5, 165.5, 163.25, 161, 159, 158.25, 156.75, 155, 153.5, 153.25, 153.5, 152.5, 151.25
302, 300.5, 300, 298.75, 297.75, 296.25, 295.25, 293, 291.75, 290.25, 288.25, 286.25, 285.25, 282.75, 280, 276.75, 275, 272, 270.5, 267.75, 264.25, 261.25, 257.25, 252.75, 248.5, 245.75, 242.75, 238.25, 234.25, 229.25, 224, 219.75, 214.5, 212, 206.75, 202.75, 198.5, 194, 190.75, 186.5, 183, 179.5, 176.75, 174.5, 170.5, 168.75, 166, 165, 162.75, 161.75, 160.75, 159.25, 157.5, 156.5, 156, 156.25, 155.5, 155.5, 153, 153.25, 153, 153.25, 153.25, 152.75, 151.75, 151, 151.75, 151.25, 151, 150.25, 149, 149.5, 150.5, 150, 149, 149.25, 150, 149.25, 149.25, 148.25, 148.75, 148.75, 148.25, 147.75, 147.5, 147.25, 147, 146.75, 146.25, 146.75, 146.25, 145.25, 144.75, 144.75, 145.5, 145, 145.5, 145, 144.75, 144.75, 145, 145, 144.5, 145, 145, 145.75, 146, 146.25, 146.5, 146.75, 147, 146.25, 145.25, 144.25, 143.75, 144, 143.75, 144.25, 144.25, 144, 145, 145.25, 145.75, 145.25, 144, 143.75, 143.75, 143.5, 144.25, 144.25, 144.25, 144.75, 145, 145, 145.75, 145.75, 146, 146.25, 146.25, 146.5, 146.5, 146.25, 146.25, 146.5, 146.5, 146.5, 146, 146, 146.5, 147.25, 148, 148, 147.5, 147.75, 147, 147.25, 147.75, 148, 147.5, 147, 146.5, 146.75, 147, 146.75, 146.75, 146.75, 147.25, 147.5, 147, 146.5, 146.5, 147.25, 147.5, 147.25, 147, 147, 147, 146.75, 146.75, 146.75, 146.25, 146.5, 147.5, 148, 148.25, 148.5, 147.25, 147.25, 147.75, 147.75, 148, 147.75, 148.5, 149, 150, 150.25, 150.25, 151, 151.25, 151.75, 151.5, 152.5, 152.5, 153, 153.5, 154.75, 154.5, 155, 154.75, 156.75, 157.5, 158, 158.25, 159.25, 160.25, 161.75, 164.5, 166.25, 168.5, 170.75, 174.25, 177.5, 181.75, 186, 190.25, 195.5, 200.25, 206.5, 211.75, 217.75, 223.75, 230.25, 236.75, 243.75, 249.25, 254, 256.25, 258, 259.5, 262, 264.75, 266.5, 268.75, 271, 273, 274.75, 276.75, 278.25, 279.75, 280.25, 280.25, 280.5, 280.25, 280.75, 281.5, 282, 282.5, 283, 282.75, 282.75, 282.75, 283, 283.5, 283.5, 284.5, 285, 284.75, 284.5, 285.25, 285.25, 285.5, 284.75, 284.75, 284.75, 285, 285.25, 285.25, 285.25, 285, 285.25, 285.5, 286.25, 286.75, 287, 287, 287, 287.5, 287.75, 287.75, 287.5, 287, 286.75, 286, 286.5, 286.75, 287.25, 287.75, 288.75, 287.75, 287.25, 286.75, 286.75, 287, 287.75, 287.5, 287.5, 286.75, 286.75, 287.25, 287.75, 288.25, 289, 289, 289.75, 289.75, 288.75, 288, 288.5, 289.25, 290, 290.5, 289.75, 288.75, 288.75, 290, 291, 291.25, 291.5, 291.75, 292, 292.25, 291.25, 290.5, 290, 289.25, 288.5, 288.25, 288, 287.5, 287.5, 287.75, 288, 288.5, 288.75, 289.75, 290, 290.25, 290.5, 290.25, 289.75, 289.5, 290.25, 290.25, 289.75, 289.25, 289, 289.25, 289.75, 290, 290.5, 290.75, 291.25, 290.5, 290, 289.5, 290, 290.25, 290.25, 289.5, 289.25, 290, 290, 290.25, 290.25, 289.25, 287.75, 287, 287.25, 286.75, 286.25, 285, 284.75, 283.75, 282.25, 281, 280, 278, 275.25, 272.75, 270, 266, 262, 256.25, 250.75, 245, 239.25, 232.25, 225.5, 219.5, 212.25, 206.75, 200.5, 195.25, 190.25, 185.75, 181.75, 178.25, 175.25, 172.25, 169.5, 167.25, 165.5, 163, 161.5, 159.75, 158.5, 156.75, 155.75, 154.75, 155, 154.5, 153
305.5, 304.75, 303, 302, 300.5, 300, 298.75, 297, 295.25, 294.25, 293, 290.5, 288.75, 287, 283.5, 280.5, 277.75, 276.5, 274, 271.5, 268.75, 264.75, 261.75, 257.5, 253, 249.75, 246.25, 242.5, 237.5, 232.25, 227.5, 222.5, 219, 214.25, 211, 206, 202, 197.25, 193.25, 189.75, 185.75, 182.75, 179.5, 176, 173, 169.75, 168.5, 166.75, 164.75, 163.25, 161.75, 160.25, 159.5, 157.75, 156.75, 157, 157, 156, 155, 153.75, 155, 155, 154.75, 155.25, 154, 153.75, 152.75, 152.25, 152, 151.25, 151.25, 151, 151.5, 151.25, 150.75, 151, 151, 151, 150, 150, 149.5, 149.75, 149, 148.75, 148, 148.5, 148.5, 148, 147.75, 148.5, 148, 147.5, 146.75, 146.5, 146.75, 147.5, 146, 146.5, 147, 147.25, 146.5, 146.25, 146.75, 146.5, 147.5, 146.75, 147.75, 147.5, 147.5, 147.75, 147.75, 147.75, 146.5, 145.5, 145.75, 145.5, 145.5, 146.25, 146, 146.75, 146.25, 147.25, 146.75, 146.5, 145.5, 145, 145.5, 145.5, 145.25, 145.25, 145.5, 146.75, 146.75, 147.25, 146.75, 147.5, 147.5, 147.5, 147.75, 147.5, 147.5, 147.5, 147.25, 147.75, 147.5, 147.5, 147.5, 147.75, 148.75, 148.5, 149.25, 150, 149.5, 148.25, 148.5, 148.75, 149.5, 148.75, 149, 148.75, 147.75, 148.25, 148.75, 148.5, 148, 148.5, 149, 149, 148.5, 148, 148, 148.75, 149.25, 148.25, 148.75, 148.5, 148.25, 148.5, 148.5, 148.5, 147.75, 148.25, 149, 150.25, 150.5, 149.5, 149, 148.5, 149.25, 149.25, 150, 150.5, 150.75, 151.75, 152.5, 152.25, 152, 152.5, 153, 153.5, 154, 153.75, 154.5, 154, 155.25, 155, 156.25, 156.25, 157.25, 158, 159.5, 160, 160.5, 161.25, 163, 165.25, 166.75, 168.75, 171, 173, 176, 179.75, 183.5, 187.75, 192.75, 197.75, 203.25, 208.5, 215, 221, 227.25, 233.5, 241, 247, 253.25, 258, 260.75, 262.25, 264.5, 267, 269.25, 271, 273.5, 275.75, 277.75, 279.25, 280.75, 282.25, 283, 284, 284.5, 284.5, 284.5, 284.5, 285, 285.75, 286.25, 286.75, 286.25, 286.25, 286, 286.75, 286.5, 287, 287.5, 288.25, 288.25, 288, 288.5, 288.75, 288.25, 288.5, 288, 288, 288.25, 288.5, 288.25, 289.25, 289.5, 289.25, 289.75, 290.5, 291, 291, 290.75, 290.75, 290.75, 291, 291.75, 291.25, 290.75, 290.25, 290.25, 290, 290.25, 290.75, 291.75, 291.5, 291, 290.25, 290.5, 290, 290.25, 290.75, 291.25, 290.75, 290.5, 290.5, 291, 291.25, 292.25, 292, 292.75, 292.75, 293, 292.25, 292, 292.5, 293.25, 294.25, 294.25, 293.5, 293, 293, 293.75, 295, 294.75, 295, 295, 295.25, 294.75, 294.25, 293.5, 293.25, 292.75, 292.25, 292.25, 291.75, 291.5, 291.25, 291.25, 291.75, 292, 292.25, 292.25, 293, 293, 293, 293, 292.5, 292.75, 293.25, 293.75, 293, 292.75, 293, 293.25, 293.25, 293.25, 293, 294, 294, 293.5, 293, 292.5, 292.5, 292.75, 293, 292.75, 292, 292.25, 293, 293, 293.25, 292.25, 290.75, 290.25, 290.25, 290.25, 289.25, 289, 287.75, 287.25, 286, 285, 283.5, 281.75, 279.75, 276.5, 273.75, 270.25, 265.5, 260.5, 254.25, 249, 242.25, 235.75, 229.25, 222, 215.5, 209, 203.25, 197.5, 192.5, 187.5, 183.5, 180, 177, 174, 171.25, 169, 167, 165.5, 163.25, 161.5, 160, 158.25, 157.25, 156.75, 156.75, 156.25, 155.25
309.5, 308.25, 306, 304, 303.5, 302.5, 301.75, 299.75, 299, 298, 296.5, 295, 293.5, 292, 288.25, 284.5, 282.75, 280.5, 278.25, 274.75, 272.5, 269.75, 266, 262.25, 257.5, 253, 250, 245.5, 240.75, 235, 229.75, 226.75, 222.5, 218.5, 213.75, 209.75, 205, 200.5, 196.5, 192.75, 189.25, 185.25, 181.25, 179.25, 175.5, 172.75, 170.5, 169, 167.25, 165.5, 164, 163, 161.25, 160, 159.25, 159.25, 158.5, 158, 156.5, 155.75, 155.5, 157, 157.25, 155.75, 156.25, 154.75, 154.5, 154.25, 153.75, 153.25, 153, 153.25, 153.25, 154.25, 153, 152.25, 152.5, 152.5, 152, 151.25, 150.25, 150.5, 150.5, 150, 150, 149.75, 150, 149.75, 149.75, 149.75, 150, 149.25, 148.5, 148.25, 148.75, 148.5, 148, 148, 148.75, 148.75, 148.5, 148, 147.75, 148.25, 148.25, 149.25, 148.5, 148.75, 148, 148.5, 148.25, 148.25, 148, 148, 147.25, 146.5, 148.25, 147.25, 148.25, 148.5, 149.25, 149.25, 149.25, 147.5, 148, 147.5, 147, 147.5, 147.5, 147.25, 148.25, 147.75, 148.5, 148.75, 148.75, 149.25, 149.25, 148.75, 149, 149, 148.75, 148.75, 148.75, 148.25, 149.25, 148.5, 149, 149.25, 150.25, 150.25, 150.75, 151.75, 151.25, 150.5, 149.75, 150.5, 150.75, 150.75, 150.5, 149.75, 149.75, 150, 150.5, 150.25, 150, 150.5, 150.75, 151, 150.25, 149.75, 150.25, 151, 150.25, 150, 150.25, 150.25, 150, 150.25, 150.5, 150.25, 150, 150.25, 151, 151.75, 151.75, 151.75, 151.25, 151, 150.5, 151.25, 151.5, 152.25, 153.25, 153.75, 154.5, 154.25, 153.75, 154.25, 154.5, 155.25, 155, 156.25, 156, 156.5, 156.25, 157.25, 157.75, 158.5, 159.25, 160.75, 161.75, 162.25, 163.25, 164.25, 166.25, 167.75, 169.75, 171.5, 173.75, 175.5, 178.5, 181.5, 185.5, 189.5, 194.75, 200, 205.5, 211.75, 218.25, 224.25, 230.5, 237.25, 244.5, 251.5, 257.75, 262.5, 265.75, 267.5, 269.5, 271.5, 273.75, 276, 278.25, 280.25, 282.25, 283.75, 285.25, 286.25, 287, 287.5, 288, 288.25, 288, 287.75, 288, 288.75, 289.25, 289.75, 290.25, 289.5, 289.5, 289.75, 289.75, 290.25, 290.75, 291.5, 291.5, 291.75, 292.25, 292.25, 291.75, 291.25, 291.5, 291, 291.25, 291.5, 292, 292.25, 292.75, 292.75, 293.25, 294.25, 294.25, 293.75, 293.75, 294, 294.25, 294.5, 295, 295, 294.5, 294.25, 294.25, 294, 294.25, 295, 295, 294.75, 294.5, 293.75, 293, 293.5, 293.5, 294.25, 294.5, 294.5, 294, 294, 294.5, 295, 295, 295.5, 295.5, 296, 295.5, 295.25, 295.25, 296, 297.25, 297.75, 297.25, 296.75, 296.75, 297.5, 298.5, 298.5, 297.75, 297.25, 297.5, 298, 297.75, 297, 296.75, 296, 296, 295.75, 295.25, 295.5, 295.25, 295, 295, 295, 295.5, 295.25, 295.25, 295.5, 295.75, 296.25, 295.75, 296, 296.25, 296.75, 296.75, 296.5, 296, 296.5, 296.25, 296.5, 296.25, 296, 296.5, 296.5, 296.5, 296, 295.5, 295.25, 295.75, 295.25, 295, 294.75, 294.75, 294.75, 295.25, 295.25, 295, 293.75, 293.5, 293.25, 293.5, 293, 292, 291, 290, 289.25, 287.75, 286.75, 285, 282.75, 280.25, 277.5, 273.75, 269.5, 264.5, 258.5, 252, 245.75, 238.75, 231.75, 225, 218, 211.75, 205.25, 199.75, 193.75, 189.75, 185.75, 182, 178.5, 175.5, 172.75, 170.5, 168.5, 166.5, 164.75, 163, 162, 160.25, 158.75, 158.5, 158, 158, 156.5
312.75, 311.5, 309, 307.25, 306, 305.75, 304, 303, 302.5, 301.5, 300, 299, 298, 296, 292.75, 290.25, 287, 284.75, 282, 278.75, 276, 273.25, 270.5, 267, 262, 257.75, 253, 249.5, 244, 238.75, 234.25, 230, 227, 221, 217.25, 212.5, 208, 203.5, 199.25, 195.25, 191.75, 187.5, 184.5, 180.5, 177, 174.5, 173.75, 172, 170.5, 167.75, 167, 165.75, 164, 162.75, 162.25, 161, 161.25, 159.75, 159.5, 158.25, 158.25, 157.75, 157.75, 158.25, 157.25, 157.5, 156.25, 157, 156.5, 155.5, 154.75, 154.5, 155.75, 155.5, 155.25, 153.75, 154.25, 154, 153.25, 152.25, 152, 151.75, 151.75, 152, 152.5, 152.5, 151.75, 152.5, 152, 151.75, 151.75, 151, 150, 151, 150.5, 149.75, 149.5, 150.25, 150.75, 150.75, 150.25, 149, 149.75, 149.5, 149.75, 149.75, 150, 150.25, 149.75, 149.25, 149, 149, 149.5, 149.75, 149.5, 149.25, 149.25, 150.25, 150.5, 151.75, 151.75, 152.25, 151, 150.25, 149.75, 150, 149.75, 149.75, 149.5, 149.75, 149.5, 149.75, 150, 150, 150.5, 150.25, 150.25, 150.5, 151, 151, 150.25, 149.5, 150.25, 150.75, 150.25, 150.25, 150.75, 151.75, 151.5, 151.75, 152.75, 152.75, 153.5, 152.5, 152, 151.75, 152.5, 152.75, 151.75, 151, 151.5, 151.75, 152, 152.5, 152.75, 152.75, 153, 153.25, 152.75, 151.5, 151.75, 152, 152.75, 152.75, 152.25, 152.25, 151.75, 152.25, 152, 152.25, 152.5, 152.5, 152.75, 153.25, 153.75, 153.5, 153.25, 153.25, 153.25, 153.5, 153.5, 154.25, 155.25, 155.5, 155.75, 156.5, 156, 156, 156.25, 156.25, 157.5, 157.75, 158.25, 158.25, 158.75, 159, 159.5, 160.75, 162.25, 163.25, 164, 164.75, 165.75, 168, 169, 170.75, 172.25, 174.5, 176, 178.5, 181, 183.75, 187.5, 191.5, 197, 202.5, 208.25, 214.75, 221, 227, 234, 241, 248.5, 256, 262, 266.5, 270.25, 272.5, 274.5, 276.5, 278.25, 280.25, 282.25, 284.75, 286.5, 288, 288.75, 289.75, 290.25, 291.25, 291.5, 291.5, 291.25, 290.75, 290.75, 291, 291.75, 293, 293, 293, 293, 292.75, 293.25, 293.5, 294.75, 294.5, 295, 295.25, 295.75, 295.75, 294.75, 294.5, 294.5, 294.75, 294.5, 294.75, 295.25, 295.25, 295.5, 295, 295.75, 296.75, 297, 296.5, 296.75, 297, 297.25, 297.75, 298, 298.25, 298, 297.75, 297.5, 298, 298, 298.75, 298.5, 298.25, 297.75, 297.25, 296.5, 296.75, 297.25, 297.5, 297.75, 297.75, 297.75, 298.25, 298.5, 298.25, 298.5, 298.5, 298.5, 298.75, 298.75, 298.25, 298.5, 299.75, 300.5, 300.5, 300.5, 300.5, 300.25, 301, 301.75, 301.5, 300.5, 300, 300, 300.5, 300.5, 300.25, 299.5, 299.5, 298.75, 298.5, 298.5, 298.75, 299, 298.25, 298.25, 298.5, 298.25, 298, 298, 298.25, 298.25, 298.75, 299, 299, 299.5, 299.5, 299.5, 299.5, 299.25, 299.5, 299.75, 299.5, 299, 299, 299, 299.25, 299, 298.5, 298.5, 298.25, 298.25, 298, 297.75, 297.5, 297, 297, 297.5, 298, 297.25, 297, 296.5, 296.5, 296.5, 296, 295.25, 294.25, 293.25, 291.75, 290.5, 289.5, 287.5, 285.5, 283.25, 280.5, 277.5, 273, 268.25, 262.5, 256, 249.25, 242.25, 234.75, 227.5, 220.5, 214, 208, 201.75, 196.5, 191.75, 188.5, 184.25, 181, 177.5, 174.5, 172, 170.25, 168, 166.5, 165, 163.5, 162.75, 161, 159.75, 159.25, 158.75, 158
316, 314, 312.75, 310.75, 309.75, 309, 308.5, 307, 306.5, 305.75, 303.75, 302.5, 301.25, 299.5, 297.25, 294, 291.5, 288.25, 285.25, 282, 279, 277.5, 274.75, 271, 267.5, 262, 258.25, 253.5, 249, 243.5, 239, 234.25, 229.75, 224.75, 220, 215, 211, 206, 202, 199, 193.75, 190, 186.25, 182.75, 178.75, 176.75, 175.75, 175.25, 173.25, 171, 169, 167.75, 166, 165, 163.75, 162.75, 162.5, 162.25, 161, 161.25, 159.75, 159.5, 159.25, 159.75, 159.5, 159, 159.25, 158.75, 158.25, 157.25, 156, 156.25, 156.25, 156.75, 156.25, 156, 154.75, 155.25, 154.25, 153.75, 153.5, 153.25, 153, 154.25, 155.25, 154.5, 154.5, 153.5, 153.75, 153.25, 153, 152.5, 152, 152.25, 152, 152.25, 151.75, 151.75, 152, 153, 152.25, 151.5, 150.75, 151.25, 150.75, 151.25, 151.25, 151.25, 151.25, 150.25, 150.25, 150, 151, 151.5, 151.5, 151.25, 151.25, 152.25, 153.5, 154, 155, 153.75, 153.5, 152.5, 152.5, 152.25, 152.25, 151.75, 151.25, 151, 151.25, 151.5, 151.5, 151.25, 152, 152.25, 152.25, 152.25, 152.25, 152, 151.75, 151.25, 151.75, 152.25, 152.5, 152.75, 153, 153.25, 153.5, 153.75, 153.75, 154.75, 154.75, 154.25, 153.75, 154, 154, 153.5, 153, 153.5, 153.75, 153.5, 153.75, 154.25, 154.25, 154.75, 155.25, 155.5, 155.25, 154, 153.25, 153.75, 154.25, 155.25, 154.75, 154.5, 154.25, 154, 154.25, 154.25, 154.25, 155, 155.25, 155.25, 155, 155.5, 156, 156.25, 155.25, 155.25, 156, 156.25, 157.5, 157.5, 158, 158.5, 158.75, 158.5, 158, 158.75, 159, 160, 160.25, 160.75, 160.75, 161, 162, 163.25, 164.25, 165.5, 166.75, 167.5, 168, 169, 171.25, 172.75, 174.75, 176.25, 178.5, 181.25, 183.75, 186.5, 190.25, 194.5, 199.5, 205.75, 212, 218, 224, 230.25, 237.25, 244.75, 252.75, 259.5, 265.5, 270.75, 274.25, 276.75, 278.75, 281, 282.75, 284, 286.25, 288, 289.5, 290.5, 291.75, 292.25, 293, 293.75, 294.25, 294.25, 293.75, 293.5, 293, 293.5, 294.75, 295.5, 296, 296.25, 296.25, 296.5, 296.75, 297.25, 297.5, 298.25, 298.25, 298.5, 299, 298.5, 298, 297.5, 298, 298, 298.25, 298, 298, 298.5, 297.75, 297.75, 298, 299.25, 299.5, 299.5, 299.5, 300, 300.5, 301, 301.25, 300.5, 300.5, 300.5, 301, 301.5, 301.75, 302, 302.5, 301.75, 301.5, 301, 301, 300.5, 300.75, 301, 301, 301.25, 301.25, 301.75, 301.75, 302, 301.75, 301.5, 301.25, 301.5, 301.25, 302, 302, 302.75, 303.5, 303.75, 303.25, 302.75, 303.75, 304.25, 304.5, 303.5, 302.75, 302.5, 303, 303.25, 303.25, 303.25, 302.75, 302.25, 301.75, 301.5, 301.5, 302.25, 301.75, 301.5, 301.25, 301.5, 301.75, 301, 301, 301, 301.5, 301.75, 302, 302.25, 302.25, 302.25, 302.25, 302.5, 302.5, 302.5, 303.25, 302.5, 302, 301.75, 302.25, 302.25, 301.5, 300.25, 301, 301.25, 301, 301, 300.5, 300.25, 300, 299.75, 300, 300.25, 300.25, 299.5, 299, 299.5, 299, 298.5, 297.75, 297.25, 296, 295, 293.5, 292, 290.25, 288.5, 286.25, 283, 280.25, 276.25, 271.5, 266.25, 259.75, 253, 245.5, 237.75, 230, 223, 217, 210.5, 204.5, 198.75, 194, 190.5, 187.25, 183.25, 179.75, 176.75, 173.75, 171.75, 170.25, 168.75, 167, 166.25, 165.25, 163.5, 161.5, 160.75, 160, 159.25
318.5, 316.5, 315.75, 314.5, 313.5, 313, 311.5, 311.5, 310.25, 310, 307.75, 305.25, 304.25, 303, 300.75, 298, 294.25, 292, 289, 286.25, 283, 281.25, 279.5, 276, 271.75, 268, 263.25, 258.25, 254, 249, 243.75, 239.5, 233.75, 229, 222.5, 218.75, 214.25, 209, 204.25, 200.25, 197.25, 192.75, 189.25, 184.25, 181.5, 179.5, 178.75, 177.5, 175.25, 173, 170.75, 169, 168.25, 167, 165.25, 164.5, 163.75, 164, 164.75, 162.75, 162.75, 161.25, 160.75, 161.25, 161, 161, 161.25, 161, 159.5, 158.25, 158.25, 157.5, 158, 158, 158.5, 157, 157, 156.5, 157, 156, 155.5, 155.25, 155.75, 157, 157, 156.75, 155.75, 154.5, 154.25, 154.5, 153.75, 153.75, 154, 153.25, 154.5, 154, 153.75, 153.25, 153.5, 154, 154, 154, 153, 153, 153.25, 152.5, 153, 152.25, 152.5, 151.25, 150.75, 151.75, 153, 153, 152.25, 152.25, 152.75, 154.25, 154, 156, 155.75, 155.5, 155.25, 154.75, 154.25, 154.5, 153.75, 153.5, 152.75, 152.75, 153, 152.75, 152.75, 153.25, 154, 154, 153.75, 153.25, 153.75, 153.75, 153.5, 152.5, 153, 154.5, 155, 155, 154.75, 155.25, 155.75, 154.75, 155.25, 155.5, 156, 155.25, 155.5, 155.25, 155.5, 154.5, 154.75, 155.5, 155.75, 155.5, 155.5, 155.25, 155.25, 155.5, 156.75, 157, 156.5, 155.5, 155.5, 156, 156.25, 156, 157, 157, 156.75, 155.75, 156, 156, 157, 157.5, 158.25, 158, 157.5, 157.5, 158.25, 157.75, 157.75, 157.5, 157.75, 159.25, 159.5, 160, 159.5, 160.5, 161, 160.75, 160.5, 160.25, 161, 162, 163.25, 162.5, 163, 163.75, 164.25, 165.5, 166.25, 167.75, 168.5, 169.25, 169.75, 171.5, 173, 174.75, 176.5, 178.25, 180.5, 183.5, 186.25, 189.75, 192.75, 197.5, 202.75, 209, 214.5, 220.5, 227, 233.75, 240.25, 248, 256.25, 263.25, 269.25, 274.25, 277.5, 280.25, 283, 285, 286.75, 288, 289.5, 290.75, 291.25, 292.25, 293.5, 294.5, 295.25, 295.5, 296.5, 297, 296.75, 296.5, 296.5, 296.75, 297.75, 299, 300, 300.5, 299.75, 300, 300.25, 300.5, 300.75, 300.75, 301, 301.75, 302, 301.5, 300.5, 301.25, 301.5, 301.5, 301.5, 301.5, 301.25, 301.25, 300.75, 300.5, 301, 301.75, 302.5, 302.5, 302.5, 303, 303.25, 303.25, 303.25, 303.5, 303, 303.5, 304, 304.75, 305.25, 306, 305.5, 305.75, 304.75, 304.5, 304.25, 303.75, 303.5, 303.5, 303.75, 303.75, 304, 305, 305.25, 305.25, 305, 304.25, 304.25, 304, 304.25, 304.25, 305, 305.75, 306.5, 306.75, 306, 306.25, 306.5, 307, 306.5, 306.25, 305.25, 305.25, 305.75, 306, 306, 305.75, 305.75, 305, 305, 304.75, 305, 304.5, 305, 304.75, 304.25, 304.75, 305, 304.5, 304.25, 304, 304.75, 304.75, 305.25, 305.25, 305.25, 305.5, 305.5, 306, 306, 306.25, 306, 305.5, 304.75, 305.25, 305.5, 305, 303.75, 303.25, 302.75, 303.25, 303.5, 303.5, 303.75, 303.5, 303.25, 302.75, 302.75, 303, 302.75, 302.25, 302, 302, 301.5, 301, 300.5, 299.75, 298.75, 297.75, 297, 295.25, 293.5, 291.5, 289, 286.25, 282.25, 278.5, 274.25, 269, 263.25, 256.5, 249.25, 241.25, 233.25, 225.75, 219.75, 213.75, 207.25, 201, 196.5, 192.75, 189, 185.75, 181.75, 178.75, 176.5, 174.25, 172.5, 171, 170.25, 169, 167.5, 166.25, 164, 162.5, 162, 161
321, 320.25, 319, 318.5, 317, 316, 315.25, 314.25, 314.25, 313.25, 311.75, 309.5, 307.75, 306, 303.75, 301.5, 299.5, 295.5, 293.25, 290.75, 288.25, 286, 283.75, 281.25, 277, 272.5, 267.75, 262.5, 258.25, 253.5, 248.5, 244, 239.25, 232.25, 227.5, 222.5, 217.75, 212.75, 207.25, 203.25, 199.25, 196.25, 191.5, 188, 184.25, 182.25, 180.5, 179.25, 176, 174.25, 172, 171, 170.25, 168.75, 167, 166.25, 166.5, 167.25, 166.25, 166.25, 165, 163.5, 162, 162.5, 162.5, 161.75, 162.75, 162.5, 162, 160.5, 160, 159.5, 159.5, 161.25, 159.5, 160, 159.5, 159.25, 158.5, 158.75, 157.75, 158, 157.5, 158.75, 158.75, 158, 156.5, 156.25, 155.75, 156, 155.5, 156, 155.5, 156.5, 156.25, 156, 154.75, 155.25, 155.25, 155.5, 155.75, 155.5, 155.5, 155.25, 155.5, 155.25, 154.75, 154.5, 153.75, 153.25, 152.25, 153, 154.5, 154.25, 153.75, 153, 154, 154.5, 155.75, 156.25, 156.25, 156.5, 156.5, 156, 155.75, 155.75, 155.5, 155.25, 155, 154.75, 155, 155.25, 154.75, 156, 156, 156, 155.25, 155.75, 156, 156, 154.25, 154.5, 155, 156.25, 157, 157, 157.25, 157.25, 157.25, 156.5, 156.25, 156.5, 156.75, 156.75, 156.75, 157.25, 156.75, 156.25, 156.75, 157, 157.75, 158, 157.25, 156.5, 156.5, 156.75, 157.5, 158.25, 158.5, 158, 157, 157.75, 158.25, 158.25, 158.75, 158.75, 158.25, 158.25, 157.5, 158.25, 158.5, 160, 160, 160.5, 159.75, 160.5, 160.75, 160.25, 160.25, 159.5, 160.25, 161, 162, 161.5, 162, 162.25, 163, 162.75, 162, 162, 163, 164.75, 165.25, 165, 165.5, 165.75, 166.5, 167.25, 168.75, 169, 170, 171, 172.75, 173.75, 175.5, 177, 178.75, 180.5, 182.75, 185.25, 189, 192.25, 196, 200, 206, 211.5, 217.25, 223.5, 230.25, 237, 244.25, 251.75, 259.5, 266.25, 272.5, 277.25, 280.75, 283.75, 286.25, 288.5, 290.25, 292, 292.5, 293.25, 293.75, 294.75, 296.25, 297, 297.5, 298.25, 299.25, 300, 300.25, 300.25, 300.25, 300.75, 301.25, 302.75, 303.5, 303.5, 303.75, 303.5, 303.75, 303.75, 303.5, 303.5, 303.75, 304.25, 305, 304, 304, 304, 304.75, 305, 304.75, 304.75, 304.25, 304.5, 304.25, 304, 304.25, 305, 305.5, 305.5, 305.5, 305.75, 306.5, 306.25, 305.5, 306, 306, 306, 306.75, 307, 308, 308.75, 308.5, 308, 308, 307, 306.75, 306.75, 306.25, 306.25, 306, 306.25, 306.75, 307.5, 308.75, 308, 307.75, 307.25, 306.5, 306.5, 306.75, 307.25, 307.75, 308.5, 309, 309, 309.25, 309, 309.25, 309.25, 309.25, 308.75, 308.5, 308.25, 308.5, 308.75, 309, 308.75, 308.5, 308.25, 308.25, 308.5, 308.25, 308, 307.75, 307.5, 307.75, 308, 308, 307.75, 307.5, 307.75, 307, 307.5, 308, 308.25, 308.5, 308.25, 308.75, 309, 309.5, 309.25, 309.25, 308, 307.75, 307.75, 308.5, 307.75, 306.5, 305.75, 305.75, 306, 306.5, 306.25, 306.25, 306.25, 306, 305.75, 305.25, 305.25, 305.5, 305.25, 305.25, 304.75, 304.25, 304, 303, 302.5, 301.5, 300.5, 299.5, 298.25, 296.25, 294, 291.5, 288.25, 284.5, 280.25, 276.25, 271.5, 266.25, 260, 252, 244.75, 236.5, 229.5, 222.75, 217, 210, 203.75, 198.75, 194.75, 191.5, 187.75, 184, 180.25, 178.25, 177, 175.25, 174, 172.25, 171, 169.5, 168.25, 167, 165, 163.75, 163.75
323.75, 323.25, 322.75, 321.75, 321.25, 319.75, 318, 317, 317, 317, 315.5, 313.25, 310.5, 308.5, 306.75, 305.5, 303.25, 301, 297.75, 295, 292.75, 290.75, 287.75, 285.25, 281.5, 277.5, 271.5, 266.5, 261.75, 257.25, 252.25, 248.25, 243.25, 237, 230.5, 226.5, 221.75, 216.75, 211.5, 206.5, 203.25, 199.25, 196, 190.75, 187, 183.5, 181.75, 179.5, 178, 175, 173.75, 173.5, 171.5, 170.5, 169.25, 169, 169, 169.5, 169.5, 168.75, 167, 164.75, 164.25, 164, 163, 163.25, 164, 164.25, 163.25, 162.5, 161.75, 161.75, 161.5, 161.5, 162.75, 162.25, 162.5, 161.25, 160.5, 160, 160.25, 159.25, 159.25, 159.5, 160.5, 159.25, 158.25, 158, 157.75, 157.75, 158.5, 158.75, 159.25, 159.25, 158.75, 158, 158, 157.25, 157, 157.5, 158, 157, 156.75, 156.75, 157.25, 157.75, 157.25, 156.5, 155.75, 155, 154.5, 155, 155.75, 156, 154.75, 155, 155.25, 156.75, 157.5, 157.25, 158, 158, 157.75, 157.75, 157.75, 157, 157.5, 157.5, 157.25, 157.5, 158, 157.75, 158, 157.5, 158, 158.5, 158.25, 157.75, 158, 157.25, 156.25, 155.75, 156.5, 157.75, 158.25, 158.5, 159.5, 159, 159.5, 158.75, 158, 158.25, 158.25, 158.25, 158.75, 158.75, 159, 158.25, 158.75, 160.25, 160, 159.75, 159.75, 159, 158.25, 158.75, 159.75, 160.5, 160, 159.75, 159.5, 160.5, 160.25, 160, 160.5, 160.75, 161, 160.25, 160, 159.5, 160.75, 161, 162, 162, 162.25, 162.25, 162.5, 162.75, 162.25, 161.5, 161.75, 163.25, 163.25, 164, 163.5, 164.25, 165.25, 164.5, 164.5, 164.25, 166.25, 166.75, 167, 167.5, 167.5, 167.75, 168.75, 169.75, 170.5, 170.5, 171.75, 173.25, 174.75, 176.5, 178, 180.25, 181.75, 183, 185, 188, 191.5, 195, 198.5, 203, 208.75, 214.25, 219.75, 226.25, 233, 240.5, 248.5, 255.75, 263, 269.75, 275.75, 280.25, 284.5, 286.75, 289.25, 291.75, 294, 295.25, 296.5, 296.5, 297.25, 298.5, 299.5, 300.5, 300.75, 301.25, 302, 303, 303.75, 304, 304, 304, 304.75, 305.25, 306.25, 306.75, 307, 307.5, 307, 306.75, 306.5, 306.5, 307, 307.75, 307.75, 307.75, 307, 307.5, 307.75, 308, 307.75, 307.5, 307.75, 307.5, 307.5, 307, 307.75, 308.5, 308.5, 308, 308.5, 308.75, 309.25, 309.25, 309.25, 309.25, 309.25, 309, 309.75, 310, 310.5, 310.75, 311, 310.75, 310.5, 310.25, 309.5, 309.5, 309.5, 309.25, 309.25, 309.75, 310, 310.5, 311, 311.25, 310.75, 309.75, 309.25, 309, 309.75, 309.75, 310.75, 311.5, 312, 312, 311.75, 311.5, 311.5, 311.75, 311.75, 311.5, 311.5, 311.75, 311.75, 311.5, 312.25, 311.75, 311.5, 311.5, 311.75, 311.75, 311.5, 310.75, 310.75, 310.5, 310.5, 311.25, 311, 310.75, 310.25, 310, 310, 310, 310, 310.5, 311.25, 311.5, 311.25, 312, 312.25, 312.75, 311.5, 311, 310, 310.5, 310.5, 310.75, 309.75, 309, 308.5, 309.25, 309.5, 309.25, 309, 309, 309, 308.5, 308, 308, 308, 308.25, 308.25, 307.75, 307.25, 306.5, 306, 305.25, 304.25, 303.25, 302, 300.75, 298.75, 296.75, 294, 291, 287, 283.25, 278.5, 274.25, 268.75, 262.5, 255.25, 247.5, 239.75, 232.5, 225.25, 218.75, 212.25, 206.75, 201.5, 197.5, 194, 189.75, 186.25, 183, 180.25, 178.75, 178, 176.25, 174.5, 172.75, 172, 169.75, 168.5, 167.25, 166.75, 165.5
325.75, 325.75, 325.5, 325.25, 324, 323, 321.5, 319.75, 320.75, 320.5, 318.75, 316.25, 313.5, 311.25, 310, 308.5, 307, 304.75, 302.5, 299.25, 296.5, 293.75, 291.75, 288.5, 286.25, 281, 275.75, 270.5, 264.75, 260, 256, 250.75, 247, 240.75, 235.25, 229.75, 226.25, 220.75, 215.25, 210.75, 207, 203.75, 199, 194.25, 189, 186.5, 183, 180.5, 179, 178, 176, 175.5, 174.5, 172.75, 172, 170.5, 171.75, 172, 171, 171, 168.75, 167.5, 166.25, 165, 164.75, 164.5, 165, 165.25, 165, 164.25, 164, 163, 162.75, 162.25, 163.5, 164.5, 164, 163.25, 162, 161, 160.75, 160, 160.5, 160.75, 161.25, 160.75, 160.25, 160.25, 159.75, 159.5, 160.25, 161.25, 161.25, 161.75, 160.5, 160.5, 160.25, 159.25, 159, 159.25, 159.5, 158.25, 157.5, 157.5, 157.75, 158.75, 158.25, 158.5, 158, 156.75, 156.5, 157.25, 157.5, 157.75, 156, 156.25, 158.25, 158.75, 159.25, 159, 159.25, 160, 159.5, 160, 159.25, 158.5, 158.75, 159.25, 159.5, 159.75, 160.25, 160.25, 159.5, 159.5, 159.5, 159.5, 159.5, 159.75, 159.5, 159, 157.5, 156.75, 157.75, 158.75, 159.25, 160, 161, 161.25, 160.5, 160.75, 160.75, 160, 160, 160.25, 160.25, 160.5, 160.25, 160.75, 160.5, 162.25, 162.25, 162, 161.75, 161.75, 161.25, 161.25, 162, 162.25, 161.75, 161.5, 161.75, 162.25, 162.5, 162.25, 162.5, 163, 163, 162.75, 162.25, 162.25, 162, 162.5, 163, 163, 163, 164, 164.25, 164.25, 163.5, 163.25, 163.75, 163.75, 165.75, 166, 165.75, 166, 167, 167.5, 166.5, 167.5, 167.75, 169.5, 169.25, 169.5, 169.5, 170.25, 171, 172.25, 172.75, 173.25, 174.5, 176, 177.25, 178.75, 181, 182.75, 184.25, 186.25, 187.5, 190.5, 194.25, 197.5, 201.5, 206.25, 211.25, 216.5, 222.25, 229.25, 236.5, 244, 251.5, 259.25, 266.5, 273, 278.5, 283.75, 287.25, 290, 292.75, 295.25, 297.25, 299, 300.25, 301.25, 301.75, 302.75, 303.25, 304, 304, 304.25, 305, 306.25, 306.5, 307.5, 307.25, 307.25, 307.25, 308.25, 309, 309.5, 310.5, 310.75, 311, 310.25, 310, 310.25, 311, 311.25, 311.5, 310.75, 310.75, 311, 311.25, 311.25, 311.25, 311, 310.75, 310.75, 310.75, 310.25, 310.5, 311.25, 311, 310.75, 311.25, 312.25, 312.25, 312.25, 312.5, 312.75, 312.5, 313, 312.75, 313.25, 313, 313.5, 314, 314, 313.5, 313.25, 313.25, 312.75, 312.5, 312.75, 313, 312.75, 313, 313.5, 313.75, 313.75, 313.25, 312.25, 312, 312, 312.25, 313.25, 313.75, 314.25, 314.75, 315, 314.5, 314, 313.75, 313.5, 314.25, 314.5, 314.5, 315, 314.75, 314.75, 314.75, 315.25, 314.5, 314, 314.75, 314.75, 314.25, 313.75, 313.25, 313.25, 313.5, 313.5, 314, 313.5, 313, 312.75, 312.5, 312.5, 312.25, 313.25, 313.75, 313.75, 314.5, 314.5, 315, 314.75, 314.5, 313.5, 313, 312.75, 313.5, 313.25, 313.25, 312, 312.25, 312.75, 312.75, 312.75, 312.25, 312.25, 311.75, 311.25, 311.25, 310.75, 311.25, 311.75, 311.25, 310.75, 310, 309.5, 309, 308, 307, 305.75, 304.75, 303.25, 301.5, 299.25, 297, 293.75, 290.75, 286.5, 282.5, 277.5, 271.75, 264.5, 257.5, 250.5, 242.25, 234.5, 227, 220.5, 214, 209.5, 204.5, 200.25, 196.25, 193, 188.5, 185, 182.5, 181.5, 179.75, 178.25, 176.75, 174.5, 173, 172, 170, 169, 168, 167.75
328.25, 327.5, 328.25, 327.5, 327.5, 326.25, 325, 323.75, 323.75, 324.25, 321.75, 319.5, 317, 314.5, 313, 312.25, 311, 308.5, 306, 303.5, 300.25, 297.75, 295, 292.25, 289.25, 286, 280.5, 274, 269.25, 263.75, 258.75, 255.25, 250, 246, 240, 234.75, 230, 224.75, 218.5, 213, 210.25, 206.75, 203, 197.75, 193, 188.5, 185.5, 183.5, 182, 180.5, 179.75, 178.25, 177, 176, 173.5, 173.75, 173.5, 174, 172.75, 171.5, 170.25, 169, 167.75, 167.5, 166.75, 166.25, 166.5, 167.25, 166.75, 167, 165.5, 164.5, 163.75, 164.25, 165, 165.25, 165.5, 164.75, 163.75, 162.5, 161.5, 161.75, 162.25, 162.5, 162, 162.5, 162.5, 162.25, 161.5, 160.75, 161.75, 161.75, 162.75, 162.5, 162.75, 161.75, 161.25, 161, 160.5, 160.25, 159.5, 160, 158.5, 158.5, 158.75, 159, 159.75, 159, 159.5, 159, 158.25, 158.75, 159.75, 159.5, 158.75, 158.75, 159.5, 160.5, 160.25, 160.75, 161, 161, 161.75, 161, 161.25, 160.75, 159.75, 160.5, 161.5, 161.75, 162, 161.25, 160.75, 160.5, 160.25, 160.25, 161, 160.75, 161, 160.5, 159.5, 159.5, 159.5, 159.75, 160.5, 161.75, 161.75, 162.75, 162.75, 162.5, 162.5, 162.75, 162.5, 162, 161.75, 161.25, 161.5, 162, 163.25, 162.5, 163, 163.25, 164, 164, 163.75, 163.25, 163.75, 164.25, 163.75, 163, 163.5, 164.5, 164.25, 164, 164.25, 164.5, 164, 164, 164.25, 164.5, 164, 164, 163.75, 164.25, 164.75, 165.5, 166.25, 165.5, 165.25, 165.75, 165, 166, 167.25, 168, 167.75, 167.75, 168.75, 169.25, 169.25, 169.5, 170.5, 171, 171.5, 171, 171.75, 172.25, 173.5, 174.5, 175.75, 176.5, 177.75, 179, 179.75, 181.25, 183.25, 185, 186.75, 188.25, 190.5, 193.25, 197, 200.75, 204.25, 209, 214, 220, 225.25, 231.75, 239.5, 247, 255.25, 262.5, 269.75, 275.75, 282.25, 287.25, 290.25, 293.25, 296.25, 298.5, 301, 302.75, 304.25, 305.25, 306, 306.25, 307, 307, 307.25, 307.5, 308.25, 309.25, 310.25, 310.5, 311, 310.5, 311, 311.75, 312.25, 313, 313.5, 314.25, 314, 313.5, 313.5, 314, 314.25, 314.75, 314.5, 314.25, 314, 314.25, 314.5, 314.75, 314.75, 314.25, 314.25, 314.5, 314, 313.5, 313.5, 314, 314, 314, 314.5, 315, 315.25, 315, 315, 315, 315.75, 316, 316.5, 316.25, 316.5, 316.5, 316.5, 317.25, 316.75, 316.5, 316, 316, 315.5, 315.75, 316, 315.75, 316, 316.25, 316, 315.75, 315.5, 315.5, 315, 314.75, 315.25, 315.75, 316.25, 317, 317.5, 317.75, 317.5, 316.5, 316.25, 316.5, 316.75, 317.25, 317.75, 317.75, 317.5, 317.25, 317.25, 317, 316.75, 317, 317.25, 317.5, 317, 316, 315.75, 316.25, 316, 316.75, 316.5, 316.5, 316, 316, 315.75, 315, 315.25, 315.25, 316, 317, 316.75, 317.5, 317.25, 317.5, 317, 316, 315.75, 315.75, 315.75, 316.5, 316, 315.75, 315.25, 316, 316, 316, 315.5, 315, 314.75, 314.75, 314, 314.25, 314.5, 315, 314.5, 314, 313, 312.25, 311.5, 311, 309.75, 308.75, 307.75, 306.25, 304.25, 301.75, 299.75, 297.75, 294, 290.5, 286.25, 281.5, 274.5, 267.75, 260.5, 252.75, 245.25, 237, 229.5, 222, 216.25, 212, 207.75, 203.25, 199, 195.75, 192, 187.75, 185.75, 183.25, 181.5, 180.25, 177.75, 176, 174.5, 173.75, 172.5, 170.75, 170, 169
330.75, 330.5, 331, 331.25, 330.5, 329, 328, 327.25, 327.25, 326.5, 324.75, 321.75, 319.75, 318.75, 317, 316.25, 314.5, 312.5, 310, 307.75, 304.25, 301.5, 299, 295.25, 293.25, 289.75, 285, 279, 274, 268.25, 263.5, 259.5, 255.5, 250, 244.75, 239.5, 233, 227.25, 221, 216.25, 213.25, 210.5, 206.75, 202.75, 197.75, 192.5, 189, 187.25, 185.25, 183.5, 182.75, 180.75, 178.75, 177.25, 176.25, 176.25, 175.25, 174.5, 174, 172.25, 171.25, 169.5, 169.75, 170.25, 169.25, 168.25, 168.75, 169, 169.75, 169, 168.25, 166.25, 165.5, 165.75, 166.5, 167, 167.25, 165.75, 166, 164.75, 164.25, 163.25, 163, 164, 164.75, 164.5, 164.25, 164, 163.5, 163.75, 163.5, 164, 163.5, 164, 164, 164.25, 163, 162.5, 162, 161.25, 161, 160.5, 160, 160.5, 160.75, 160.5, 161.25, 160.25, 160.25, 160.75, 160.75, 160.25, 161.25, 161.5, 161.5, 161.75, 161, 162, 161.75, 162, 161.5, 162.25, 162.75, 163.25, 162.5, 162, 161.5, 162, 162.5, 163.25, 163.5, 163.25, 162.5, 161.75, 161, 161.75, 162, 162.25, 162.25, 162.5, 162.25, 162, 162, 161.75, 162.25, 162.5, 163, 163.75, 164.5, 164.25, 164.5, 165, 164.75, 163.75, 163.25, 163.5, 162.75, 163.75, 163.75, 164.5, 164.5, 164.75, 165, 166.25, 165.75, 165.5, 165.25, 165.5, 165, 165.25, 166, 166.25, 166, 164.75, 165.5, 165, 165.25, 165, 165.75, 165.5, 166.5, 166, 166.5, 166.75, 167.5, 167.5, 168, 168.5, 168.25, 167.5, 167.75, 168, 169.5, 169.5, 170, 170.25, 170, 171, 170.75, 172, 173, 173.25, 173.5, 174, 174, 174.5, 175.75, 177, 178.25, 180, 181, 181.75, 183, 184, 185.75, 187.25, 189.25, 190.5, 193, 195.75, 199.5, 203.25, 206.75, 211.25, 216.25, 222, 228.25, 234.75, 242, 249.75, 257.5, 265.75, 273, 279.5, 285.5, 290.25, 293.5, 296.75, 299.25, 302, 304.25, 306.25, 307.5, 309.25, 309.75, 310, 310, 309.75, 310.25, 311.25, 312, 313, 313.75, 314.25, 314.5, 314.75, 314.5, 315.25, 315.75, 315.75, 316.5, 317, 316.5, 316.25, 316.75, 317.5, 317.5, 317.25, 317, 317, 316.75, 317, 317.5, 317.5, 317.5, 317.75, 317.5, 318, 317.75, 317, 316.75, 316.75, 317, 316.75, 317, 317.5, 317.75, 317.5, 316.75, 317.5, 318, 319, 319.5, 320, 319.5, 319.5, 320, 320, 320, 319.25, 318.75, 318.5, 318.25, 318.75, 319.25, 319.5, 319.25, 319, 319, 318.5, 318.5, 318.25, 318.25, 318.5, 318.5, 318.5, 318.75, 319.25, 320, 320.75, 320.25, 319.75, 319.25, 319.75, 319.5, 320.25, 320.25, 320.25, 319.75, 319, 318.5, 318.5, 318.5, 318.75, 319.5, 319.75, 319.5, 318.25, 318.5, 318.5, 319.25, 319.25, 320, 319, 319.25, 318.75, 318.5, 318.25, 318, 318, 319, 319.25, 319.5, 319.75, 320, 319.5, 319, 318.5, 318.75, 318.5, 318.75, 319, 319, 318.5, 318.75, 318.25, 319.25, 318.75, 318.75, 317.75, 317.5, 317, 317.25, 317.25, 318, 318, 318, 316.5, 316, 315.25, 314.75, 314, 313, 311.75, 310.75, 308.75, 306.75, 304.75, 303, 300.5, 298, 294.5, 290.5, 284.75, 278, 270.75, 263.75, 256.25, 248.25, 240, 231.25, 224.5, 219, 214.5, 209.75, 205.5, 201.25, 198, 194.25, 191.25, 188, 186, 183.5, 181, 178.75, 177.5, 176.5, 175, 174.5, 173, 172.25, 171.25
333.5, 333.25, 333.75, 333.75, 332.75, 331.75, 330.5, 329.75, 329.25, 329, 327.25, 324.5, 323.75, 322.75, 321.5, 319.75, 318.25, 315.75, 314, 311.5, 309, 305.25, 301, 299.5, 296, 293.25, 289, 284.5, 279, 273.75, 269, 264.25, 259.75, 254.75, 248, 242.5, 236.5, 230.25, 223.25, 219.25, 216.75, 213.5, 209.5, 205.5, 201, 196, 191.75, 189.5, 188, 187, 184.75, 183, 180.75, 180, 178.25, 177, 176.5, 176.25, 175.25, 173, 171.25, 171, 171.5, 172, 170.75, 171, 171.75, 172, 171.25, 171, 169.75, 169.5, 167.75, 168.5, 169, 169, 168.25, 169, 167.75, 167.75, 166.5, 165.75, 165, 165.75, 166, 166, 167, 166, 166.25, 165.75, 165.75, 164.75, 165.25, 165, 166, 165.5, 166, 164.5, 163.5, 162.75, 161.75, 161.75, 162.75, 163.25, 163.5, 163.25, 162.25, 162.75, 162.25, 162.5, 162.5, 162.5, 163.75, 163.75, 164, 163.5, 164, 163.25, 163.5, 162.75, 163, 163.5, 164.25, 164, 164, 163, 163, 163.25, 163.75, 165.25, 165.5, 164.75, 164.5, 163.75, 164, 164, 164.25, 164.25, 165.25, 164.75, 165, 164.75, 164.25, 164.75, 164.25, 164.25, 165, 165, 166.25, 166.75, 166.5, 166.5, 167, 167, 165.75, 165.5, 166.5, 165.75, 167, 166.75, 166.5, 165.75, 167.5, 167.75, 168, 167, 167, 167, 167.5, 167.25, 167.75, 168.25, 167.5, 166.75, 166.25, 167, 166.5, 166.75, 167, 168.25, 168.5, 169.25, 169.25, 169.75, 170, 171.25, 171.5, 170.75, 170.5, 170.75, 170.75, 171, 171, 172.25, 172.75, 172, 172, 172.25, 173.5, 173.5, 175, 176, 176, 176.25, 176.75, 177, 178.75, 180, 181, 181.75, 183.75, 184.25, 185, 186.75, 188, 189.25, 191.5, 193, 195, 198.5, 202.25, 205.5, 209, 213.5, 219, 224.5, 230.75, 237.75, 244.5, 252, 260.5, 268.5, 276.75, 283.5, 289.5, 293.75, 297.5, 299.5, 301.75, 304.5, 306.75, 308.5, 310.75, 311.75, 312.75, 312.75, 312.5, 312.75, 314, 314.75, 315.5, 316.25, 317.25, 317.5, 318, 318, 318.5, 319, 318.75, 318.25, 318.5, 319.25, 319.5, 319.25, 319.75, 319.75, 320.25, 319.5, 319.5, 319.25, 319.25, 319.25, 320, 320.25, 320.5, 320.5, 320.5, 321.25, 321, 320.25, 320, 320.25, 319.75, 319.5, 319.25, 319.75, 319.75, 319.25, 318.75, 319, 320.25, 321.25, 322.5, 322.75, 322.25, 322, 322.5, 322.5, 322.25, 322, 321.25, 320.75, 321.25, 321.75, 322.5, 322.5, 322.25, 322, 321.5, 321, 321, 321.25, 321.75, 321.75, 321.5, 321.5, 321.75, 322, 323, 323.5, 323.75, 323.25, 323, 322.5, 323, 323, 322.75, 322.25, 321.75, 320.75, 320, 319.5, 319.5, 320.5, 321.25, 321.75, 321.75, 321.75, 321.25, 321.75, 321.75, 322.5, 322.5, 322.75, 321.5, 321.75, 321.25, 321.5, 320.75, 321.25, 321.5, 322, 322.5, 322.5, 322.25, 322, 321.75, 321.25, 321, 321, 322, 322, 321.5, 321.75, 321.25, 321.75, 322, 321.75, 321.25, 321, 320, 319.75, 319.75, 320.5, 320, 320.25, 319.75, 319.5, 318.75, 318.25, 317.75, 317.25, 315.75, 314.75, 313.5, 312.25, 310, 308.25, 306.5, 304, 301.75, 298.5, 294, 287.75, 281.25, 274.25, 266.5, 259, 250.75, 242.75, 234.25, 226.75, 221.25, 216.5, 212.5, 207.25, 203.5, 199.75, 196.75, 193.75, 191, 188.25, 186, 183, 181, 179, 178, 177.25, 176.75, 176, 174.5, 173.5
335.75, 335.75, 335.75, 335.75, 335, 334, 332.5, 331.75, 332.25, 331.75, 329.25, 327.75, 327, 326, 324.5, 324, 321.25, 318.75, 316.75, 315, 312, 308, 304.5, 301.5, 299.75, 297, 293.5, 289, 283.75, 279, 274, 269, 264, 257.75, 252.25, 246, 240.5, 233, 227.75, 223, 218.5, 215, 211.25, 206.5, 201.5, 197.5, 195.25, 192, 190.75, 189, 187.5, 185.75, 184, 181.75, 180.25, 179, 178.75, 177.75, 175.75, 175, 173.5, 172.5, 172.5, 172.75, 173, 172.5, 172, 173, 174.25, 172.5, 171.5, 170.25, 171, 171.5, 171.75, 171, 170.75, 170, 171, 171, 169, 167.5, 167, 168.25, 169, 169, 168.25, 168.75, 167.5, 167.75, 166.75, 166.5, 165.25, 166.25, 167, 167, 166.5, 166.75, 165.75, 164.25, 163.75, 163.5, 165.25, 165.25, 165.75, 165.25, 164.75, 164.25, 165, 164.5, 165, 165.75, 165.25, 166, 165.75, 166, 166, 165.75, 165, 165, 164.5, 165.75, 165.5, 166, 166, 164.75, 164.5, 164.25, 165.75, 167, 167.25, 166.75, 166.25, 166.5, 166.25, 167.75, 167.75, 167.75, 167.5, 168, 167.75, 167.25, 167.75, 166.75, 166.75, 166.25, 167, 167.5, 168.25, 168.25, 168.25, 168.25, 169.25, 169.5, 169.25, 169, 169, 169.5, 169.25, 169.5, 168.5, 168.5, 168.25, 170, 169, 168.75, 168.5, 169, 169.25, 169.75, 170, 170, 168.5, 168.25, 169.25, 169, 169.5, 168.75, 169.25, 170.5, 171.5, 171.5, 172.25, 171.75, 172.75, 173.75, 173.5, 173, 173.25, 173.5, 173.25, 172.5, 174, 174.5, 174.5, 175, 174.75, 174.5, 175, 176.25, 177.5, 178.5, 178.25, 178.5, 179.5, 180.25, 181, 182.75, 183, 184.25, 185.25, 186.5, 186.5, 188.25, 190.25, 191.75, 192.5, 195, 198, 201.25, 204.5, 208.25, 212, 216.5, 221.75, 227.5, 233.75, 240.75, 247.5, 254.75, 263.5, 272, 280.25, 287.75, 293.25, 297.5, 300.25, 302.25, 304.5, 306.75, 308.5, 311, 312.75, 314.25, 314.75, 315, 315.25, 315.75, 317, 318, 318.75, 319.25, 319.5, 320.25, 320.75, 321.25, 321.75, 322.25, 321.75, 321, 321.25, 321.75, 322.25, 322.5, 322.25, 322.5, 322.25, 322.25, 322, 321.75, 321.75, 322.5, 322.75, 323.25, 323.5, 323, 323.5, 323.75, 323.75, 323.5, 323, 322.75, 322.75, 322, 321.75, 321.25, 321, 321, 320.75, 321.25, 322.5, 324, 325, 325.25, 325, 325, 324.75, 324.5, 324.75, 324.25, 324, 323.75, 324, 324.5, 325, 324.75, 325, 324.75, 324, 324, 323.5, 324, 323.75, 324, 324, 324.25, 324.25, 325.25, 326, 326.75, 326.5, 326.5, 325.75, 325.75, 326, 325.5, 325, 324, 323.25, 322.75, 322.25, 321.5, 321.5, 322, 323.5, 324.25, 324.5, 324.25, 324.5, 324.5, 325, 325.25, 325.75, 324.75, 324.5, 324.25, 324.5, 324.25, 324.5, 324.25, 324.5, 324.5, 325, 325, 325, 324.75, 324.25, 324, 323.75, 324.25, 324.25, 324.5, 324.75, 324.25, 324.5, 324.75, 324.75, 324.5, 324, 323.75, 322.75, 322.25, 322.5, 322.25, 322.5, 321.75, 322, 321.5, 321.5, 321.25, 321, 320.25, 318.75, 317.5, 317, 315.75, 314, 312, 310, 308.25, 305.25, 302, 297.25, 291, 284.25, 277.25, 270, 261.75, 252.5, 245, 237, 230, 223.75, 219.5, 214.5, 209.75, 205.25, 202, 198.75, 196, 193.75, 190.5, 188, 185.5, 183.25, 180.75, 180.75, 180.25, 179.25, 178, 176.75, 175.25
338, 337.75, 338, 337.75, 337, 336.25, 335.25, 335.25, 334.25, 334, 332.5, 330.5, 330, 328.5, 328, 325.5, 324, 321.5, 319.75, 318, 314.5, 310.75, 308, 305.25, 302.5, 300.25, 297.5, 293.25, 288.25, 283, 278.75, 274.5, 268.5, 260.75, 255.75, 251.25, 244.75, 238.25, 231.25, 227, 222.25, 217, 212.25, 208, 204.25, 201, 197, 196, 193.5, 192, 190.5, 188.5, 186.75, 184.25, 183, 181.25, 180.5, 179.75, 179.25, 177, 175.5, 174.25, 174.5, 174.25, 173.75, 173.25, 173.5, 174.75, 173.5, 173.75, 173.5, 173, 173, 173.75, 173, 173, 171.75, 172, 173, 172.5, 171, 169.5, 170.5, 170.5, 171.75, 171.75, 171.25, 170.25, 170, 168.25, 168, 167, 166.5, 167, 168, 167.75, 167.5, 167.5, 167.75, 167.25, 165.75, 166.5, 166.25, 168, 167.25, 167.25, 166, 166, 166, 167.75, 166.75, 166.75, 167.25, 167.25, 168, 167.5, 167.25, 167.25, 167.5, 167, 167.75, 167.25, 168, 168.25, 167.75, 166.5, 165.75, 166.75, 167, 168.5, 169, 168.5, 167.75, 167.75, 169.5, 169.75, 171, 170.5, 171.25, 170.25, 169, 170, 170, 169.5, 169.25, 169.5, 169, 170, 170.25, 169.75, 169.5, 171.25, 171.25, 171.25, 172, 171, 171.25, 171.25, 171, 170.75, 171.25, 170.25, 170, 170.75, 171.75, 170.5, 170.5, 170.75, 171.5, 171.75, 172.25, 171.75, 171.25, 170.25, 170.5, 171.75, 172.25, 172.5, 171.25, 172.5, 173.5, 174.25, 173.75, 174.5, 174.75, 175, 175.25, 174.75, 175, 175.25, 175.25, 175.5, 176, 177, 176.75, 177, 177.5, 177.5, 178, 178.75, 179.75, 180.5, 181.5, 182, 182.25, 183.5, 184.25, 184.75, 185.75, 186.5, 187.25, 188, 189.25, 190.25, 192, 193.5, 195, 197.5, 200.5, 203.75, 207, 211.25, 215, 219.25, 224.5, 230.25, 236.75, 243.75, 250.5, 258, 266.5, 275, 284, 291.25, 296.75, 300.75, 303.5, 305.5, 307.75, 309.5, 312, 313.75, 315.5, 317, 317.75, 318, 318, 319, 320, 321.25, 321.75, 322.25, 322.25, 322.75, 323.5, 324.25, 325, 325.25, 324.75, 324.25, 324, 324.75, 325.25, 325, 325.5, 325.75, 325.25, 325, 325, 325, 325, 325.75, 325.75, 326.25, 326.25, 326.25, 326, 326.25, 326.25, 325.75, 325.5, 326, 325.25, 324.25, 323.5, 323.75, 323.5, 323.5, 323.25, 324.25, 325.5, 327, 327.5, 327.5, 327.25, 327.25, 327.25, 327.5, 327, 327, 326.5, 326.5, 326.25, 327, 327, 327, 326.75, 326.5, 326.5, 326.75, 326.5, 326, 326.25, 326.25, 326.75, 326.75, 327, 328, 328.75, 329.25, 329.5, 328.75, 328.25, 328.25, 328, 327.75, 327, 326.25, 325.5, 325.25, 324.5, 324.25, 324.5, 325, 325.75, 326.5, 327, 326.75, 327.25, 327.5, 327.5, 328.25, 328, 327.75, 327, 327.5, 327.5, 327.5, 327.5, 327.25, 327, 327.25, 327.5, 327.75, 327.75, 327, 326.75, 326.25, 326.25, 326.25, 326.75, 327.25, 327.25, 327.25, 327, 327.5, 326.75, 326.75, 326.5, 326, 325.5, 325, 324.75, 324.5, 324.25, 324, 323.75, 324.25, 324.75, 324.5, 324, 323, 322, 321, 320, 319.25, 318, 315.75, 313.5, 311, 308.75, 305.25, 300.75, 294.75, 287.5, 280.75, 272.75, 264.75, 255.75, 247.25, 240, 233.25, 227.75, 222, 217.25, 212.25, 207.75, 204, 201, 197.5, 195.25, 192.75, 190.25, 187.25, 184.5, 183.5, 182.5, 182.25, 181.25, 180.25, 178.5, 177.5
340.5, 341, 341, 340.25, 340, 339, 338.75, 338, 337.75, 336.5, 335, 333.75, 331.75, 332, 330.5, 328.75, 326.25, 323.75, 322, 320.5, 318.5, 314.75, 311.75, 308.25, 306, 303, 300.75, 297, 291.5, 287.75, 283.25, 279, 272.75, 266.25, 260, 255, 250, 243.25, 236.75, 230.25, 226.5, 220.5, 215.25, 210.75, 207.25, 203.25, 201, 198.5, 196.75, 194.25, 193.25, 191, 188, 187, 184.5, 184.25, 183, 182.5, 182.25, 181, 179.25, 178, 177.25, 176.75, 175.25, 174.5, 176.5, 176.5, 175.5, 175, 176, 175.5, 175.25, 175.5, 175, 174, 173.75, 173.5, 174.5, 173.75, 173, 172.75, 172.25, 173.75, 174, 174.75, 173.75, 173.25, 171.75, 170.5, 169.25, 168.5, 168.75, 169.25, 168.75, 169.25, 168.25, 169.25, 170.25, 169.5, 169, 168.25, 170, 170, 169.5, 167.75, 168.25, 168, 168.75, 168.5, 168.75, 168.25, 169, 169.5, 168.5, 169, 168.75, 169, 169.5, 169.5, 170.25, 170.25, 170.25, 170.25, 169.5, 168.5, 168, 168, 169.5, 170, 170.25, 169, 169, 169.75, 170.75, 172.25, 172.75, 173, 172, 171.5, 171.25, 171.75, 171.75, 171.75, 171.75, 171.25, 170.75, 172, 172, 171.75, 171.5, 172.25, 173.75, 173.75, 174, 173.25, 172.25, 172.5, 172.25, 172, 172.5, 172.75, 172.5, 173.25, 173.25, 173.25, 172.5, 173, 173.5, 174, 173.75, 174.5, 174.25, 173, 173.25, 173.5, 174, 174.25, 174.5, 174.5, 175.5, 175.75, 176.25, 176.5, 176.5, 176.75, 176, 175.5, 175.5, 176.75, 178, 177.75, 178, 178.75, 179, 179.75, 180, 181, 180.75, 181.5, 182.5, 183, 184.5, 185.25, 186.25, 186, 187, 187.5, 188, 188.75, 189.75, 191.5, 191.75, 193.5, 194.75, 196.5, 198.25, 200.5, 203, 206.5, 210.25, 213.5, 217.25, 222.25, 227.25, 233.25, 239.75, 247, 254.25, 261, 269.5, 278.75, 287, 294.25, 299.5, 303.75, 306.5, 308.75, 311, 313.25, 315.5, 317.25, 318.75, 320, 321, 321.75, 322, 322.5, 323.5, 324.25, 324.75, 324.75, 325.25, 326, 326.5, 327.25, 327.75, 328.25, 327.75, 327, 327, 327.75, 328.5, 328.5, 328.25, 328.75, 328.5, 328.5, 328, 328, 327.75, 328, 328.75, 329, 329.25, 329, 328.5, 329, 329, 328.25, 328.75, 328, 327.25, 326.75, 326.5, 326.25, 326.75, 327, 327.25, 327.5, 328.75, 329.25, 329.75, 329.5, 329.5, 329.75, 329.75, 329.75, 329.75, 329.5, 329.25, 329, 329.25, 329.25, 328.75, 328.25, 328.5, 328.5, 329, 329.25, 329.25, 328.75, 329, 329.25, 329.75, 330, 330, 330.5, 330.75, 331.5, 331.75, 331.25, 330.5, 330.25, 330, 329.75, 329.75, 328.5, 328.25, 327.75, 327.25, 327, 327.25, 327.75, 328.5, 329, 329.25, 329.5, 329.5, 329.75, 330.25, 330.5, 330.75, 330.25, 330, 330, 330.5, 330.75, 330.5, 329.5, 329.5, 329.75, 330, 330, 329.5, 329.5, 328.75, 328.5, 328.5, 328.25, 328.75, 329.5, 330, 329.75, 330, 329.5, 329.5, 329, 329, 328.75, 328.25, 327.75, 327, 326.75, 326.5, 326.25, 326.75, 327, 327.5, 327.25, 326.75, 326, 325, 324, 323.5, 322.75, 321.25, 319.5, 316.75, 314.25, 311.75, 308.75, 304, 297.75, 291.25, 284.5, 276.75, 267.5, 259.25, 250.75, 242.75, 237, 230.5, 226, 220.25, 215.25, 210, 205.75, 202.75, 200, 196.75, 194.5, 192.25, 189.5, 187.25, 185.75, 184.5, 183.5, 183.25, 182, 181.5, 179.5
343.5, 343.75, 343.75, 343.25, 342.75, 342.75, 341.5, 341, 340.75, 339.25, 337.75, 336.5, 336.5, 334.5, 333.75, 331.75, 329, 326.5, 325.75, 324.5, 322, 319, 315.75, 313.5, 309.75, 307.5, 305, 301, 297.25, 291.5, 289, 284, 277.75, 270.25, 264, 260.25, 253.5, 247, 240.25, 235.5, 229.75, 224.5, 218.75, 214, 209, 206.5, 203.75, 201.75, 198.5, 197.25, 195, 192, 190.75, 188.25, 186.5, 185.5, 186.25, 186, 184.75, 185, 183.75, 181.25, 179.75, 178.5, 178, 177.75, 177.25, 178.5, 178.25, 177.75, 176.75, 177.5, 178, 176.5, 176.5, 176, 175.5, 175.75, 175.5, 176.25, 175.5, 174, 175.25, 176.25, 176.5, 175.75, 175, 175.25, 174, 172.25, 170.5, 170.75, 171.25, 171.5, 171.75, 170.5, 170, 171, 172, 172, 171.25, 171.75, 171.5, 172.25, 171.5, 171.75, 170.75, 171.5, 170.5, 170.5, 170.75, 170.75, 171, 171, 170.25, 170.5, 170, 170.5, 171, 172, 171.5, 172, 172.25, 171.25, 171.75, 171.5, 170.5, 170.25, 171.25, 172.75, 171.75, 170.75, 171, 171.5, 173, 173.75, 174.25, 173.75, 172.25, 171.75, 172.25, 172.75, 173.75, 173.75, 173.5, 173.25, 173.5, 173.5, 173.25, 173, 173, 174.75, 175.75, 176.75, 175.75, 175, 174, 173.75, 174, 174, 174.5, 174.25, 175, 175.25, 175.75, 175, 175, 175.25, 175.75, 176, 176.5, 176.75, 177.25, 176.75, 175.75, 176, 176.75, 177.5, 177, 177, 177.5, 178, 178.5, 179.25, 178.75, 178, 177, 176, 176.5, 178.5, 179.5, 180.25, 181.25, 180.75, 181.75, 182, 183.25, 183.75, 184.25, 184.25, 184.5, 185.25, 186.5, 188.5, 189, 189, 188.75, 189.25, 190.5, 191, 193.5, 194, 195.25, 197, 199, 199.75, 201.75, 203.75, 207, 209.25, 212.75, 216.75, 220.25, 225, 230.5, 237, 243.5, 250.75, 258, 265.25, 273.5, 282.25, 290.5, 297.75, 303.25, 306.75, 309.5, 312, 314, 316.5, 318.25, 320, 321.5, 323.25, 324.5, 325, 325.5, 326, 326, 327.25, 327, 327.5, 328, 328.75, 329.25, 330, 330.25, 331, 330.75, 330.5, 330, 331, 331.25, 331.5, 331.75, 331.5, 331.5, 331.25, 330.75, 330.25, 330, 330.5, 331, 331, 331.25, 331.75, 331.25, 331.25, 331.25, 331.25, 331, 330.25, 329.75, 329.25, 329.25, 329.75, 330, 330.5, 330.75, 331.5, 332, 332.25, 332.25, 332.5, 332.25, 332.25, 332.25, 332.5, 332.25, 332, 331.5, 331.5, 331, 331, 330.25, 330.5, 330, 330.25, 331, 331.75, 332.25, 331.75, 332, 332.75, 332.75, 332.5, 332.5, 332.25, 332.75, 333, 333.5, 333, 332.25, 331.75, 331.75, 332.25, 331.75, 331.75, 330.75, 330.5, 330.25, 330, 330, 330.75, 331.25, 331.25, 331.75, 331.25, 331.75, 332, 332.5, 332.75, 333, 332.5, 332.5, 332.75, 333, 333.25, 333, 332.25, 331.5, 331.5, 332.25, 332.25, 331.5, 330.75, 330.75, 330.25, 330.5, 330.5, 330.75, 331.75, 332.25, 332.25, 331.5, 331.5, 331.75, 331.5, 331.25, 331.25, 331, 330, 329.75, 329.5, 329, 329, 329.25, 330, 330.25, 330, 329.25, 328.5, 327.75, 327, 326.5, 325.75, 324.25, 322.25, 320.5, 318, 315.25, 311.75, 307.5, 301.5, 294.25, 288, 280, 271.75, 262.25, 253.75, 246.25, 239.25, 234.25, 228.25, 223.25, 217, 212.75, 208.25, 204.5, 201.75, 199.25, 196.5, 194, 192.25, 189.75, 188.25, 186.75, 185.5, 184.75, 184.25, 183, 182.25
346, 346.25, 346.5, 346, 345.5, 344.25, 344.5, 343.75, 343, 342, 340.25, 339.75, 338.75, 338.25, 336, 335.25, 332.75, 330.5, 329.75, 328.25, 326.25, 323, 320.5, 317.75, 315, 312.5, 309, 306.25, 302, 298.25, 293.5, 289.75, 282.5, 275.5, 269.25, 264, 258.25, 250, 244.75, 239.75, 234.75, 227.5, 222.25, 216.25, 213.25, 208.5, 206, 202.25, 200, 198.75, 196, 194, 191.75, 191, 189.25, 187.75, 187.25, 189, 188.25, 187, 186.75, 185.25, 182.75, 180.25, 179.5, 179, 180, 180.25, 180.5, 179.25, 179, 179.25, 178, 178, 178.25, 177.25, 176.75, 177, 177.5, 178, 177.75, 177.75, 177.75, 177.5, 177, 176.75, 177.25, 176.5, 175.5, 173.75, 173, 173.25, 174.25, 174.5, 173.25, 172.25, 172.75, 173.75, 174.5, 173.75, 173.5, 173, 173.75, 173.5, 175, 174, 174.5, 173.25, 173, 172.25, 173, 173, 172.75, 173, 173.25, 172, 172.25, 171.75, 172.75, 173.25, 174.25, 174, 174, 174.5, 173.5, 173.5, 173.75, 174, 174, 174, 174.25, 173.75, 172.75, 174.5, 174.75, 176, 175, 174.5, 173.75, 172.75, 173.5, 175.25, 176, 176.25, 176, 175.75, 175.5, 175.5, 175.25, 174, 175, 176, 178, 178, 177.75, 177.5, 176.25, 175.75, 175.75, 176, 176.5, 176.75, 177, 177.5, 177.25, 177, 177.25, 177, 177.75, 178, 178, 179, 179.75, 179.75, 179, 178.25, 179.5, 179.75, 180, 180, 180.25, 180.5, 181.25, 182, 181.5, 180.5, 178.75, 177.75, 178.25, 180, 181.75, 182.75, 183, 184.5, 184.25, 185.25, 185.75, 187, 187.25, 186.5, 186.75, 187.75, 188.5, 190.5, 190.75, 189.5, 191, 191.75, 192.25, 193.5, 195.25, 197.5, 198, 200, 201.25, 203.5, 204.25, 207, 209.75, 212.25, 215.5, 219.5, 223.25, 227.75, 233.75, 240.5, 247, 254.25, 261.75, 269.25, 277.75, 286, 294.5, 301.5, 306, 310, 313.25, 315.25, 317.5, 319.5, 321.5, 322.5, 324.25, 326, 327.5, 328, 328.75, 328.5, 329.25, 329, 329.5, 329.75, 330.5, 331.25, 331.75, 332.25, 332.75, 333.25, 334, 333.25, 333.5, 333.5, 333.75, 334, 334.25, 334.25, 334, 333.5, 333, 332.25, 332.75, 333, 333.5, 333.75, 334.25, 334, 334, 334, 334, 333.75, 333, 333, 332.25, 332, 332.5, 333, 333.25, 333.25, 334, 334, 334.75, 335, 335, 334.75, 335, 335, 335, 334.75, 335, 334.25, 334, 333.75, 333.75, 333, 332.5, 332, 332, 332.25, 333.25, 334.25, 334.25, 334.25, 334.5, 335.25, 335.75, 335, 334.75, 334.25, 334, 334.75, 334.75, 335, 334.5, 333.5, 333.75, 333.75, 334.5, 334, 333.75, 333.5, 333.5, 333, 333.25, 333.5, 333.25, 333.75, 333.5, 334, 333.75, 334.25, 334.25, 334.75, 334.75, 334.75, 334.5, 335, 335, 335.25, 335.25, 335, 334, 333.5, 334, 334, 333.5, 333.25, 332.75, 332.5, 332.5, 332.5, 333.25, 334, 334.25, 334, 333.75, 333.25, 333.5, 333.75, 333.5, 333.5, 333, 332.5, 331.75, 331.25, 331.75, 332, 332.25, 332.5, 332.5, 332.25, 331.75, 331, 330.25, 329.75, 328.75, 328.25, 327, 325.25, 323.5, 321.25, 318, 314.5, 310.25, 304.75, 298.5, 290.5, 283, 274.5, 265.25, 256.75, 248.5, 241.75, 235.75, 230.5, 224.75, 220.25, 214.75, 210.5, 207, 203.75, 201, 198.25, 196, 195, 193.5, 191.25, 189.25, 187.25, 186.25, 185.75, 185.25, 184
348.75, 348.75, 348.75, 348, 347.5, 346.5, 346, 345.5, 344.5, 344.5, 343.25, 341.25, 341, 340.25, 339.5, 337.5, 336.25, 334.5, 333.5, 332.5, 329.25, 327.25, 324.5, 322.5, 319.5, 316.5, 314.5, 311.5, 307.75, 303, 299.25, 293.5, 287.25, 281, 275.5, 269.5, 261.75, 256.5, 249.75, 245.75, 239.75, 233.75, 227, 222.25, 216.5, 212.5, 207.25, 204.75, 201, 198.75, 197.5, 196, 195.25, 193.5, 192.25, 190.5, 190, 189.5, 190, 190, 189.5, 187.5, 185.25, 183.75, 182, 181.5, 181.5, 183, 181.5, 181.25, 181, 179.75, 180, 180.25, 179.75, 179.25, 178, 178.5, 180, 180.5, 181.25, 181.25, 179.5, 179.5, 179, 178, 177.5, 177.5, 177.25, 175.5, 174.75, 175.5, 175.5, 176.25, 175, 174.5, 175, 176, 176.5, 176.5, 174.5, 175.25, 174.75, 175.75, 175.5, 176.25, 175.75, 175.25, 174.25, 174, 174.25, 174.25, 175.25, 175.5, 175.25, 174.75, 173.75, 174.5, 173.5, 175.5, 175.5, 176.5, 176, 177, 177.5, 176.25, 176.25, 176.5, 176.75, 177.5, 177.5, 175.5, 175.75, 176, 177, 177.25, 177.5, 176.75, 175.25, 175, 176.25, 177.75, 177.75, 177.5, 178.75, 177.75, 177.25, 177, 177.25, 176.25, 176, 177.75, 178.5, 180, 179.75, 179.25, 178.25, 177.75, 178, 178.25, 179.25, 180, 180.25, 179.25, 180, 179.75, 179.25, 180.25, 180.5, 180.5, 180.75, 180.75, 181.5, 181.5, 180.75, 180.75, 180.75, 182, 182, 182.25, 182.5, 183.5, 184.25, 185, 185, 183.25, 181.75, 181.5, 182, 182.75, 184, 184.5, 186.25, 186.5, 187, 187.75, 189, 189.75, 189.5, 189.5, 189.25, 189.5, 191, 192.5, 192.75, 192.25, 192.5, 194, 194.75, 196.25, 197.25, 199.25, 201, 202, 204.25, 205.25, 206.75, 209.25, 212, 215.25, 218.5, 222.5, 226, 230.5, 236.5, 243.5, 250, 257.5, 264.5, 272.5, 281.75, 290, 297.75, 304, 309.5, 313.75, 317, 319.25, 321.25, 323.5, 325, 326.25, 327.25, 329, 330.5, 331.5, 331, 331, 331.5, 331.75, 331.75, 332, 332.25, 333.5, 334.25, 334.5, 335.25, 336, 335.75, 335.75, 335.75, 335.75, 336.25, 336.75, 336.5, 336.5, 336, 335.5, 335.25, 334.75, 335.25, 335.5, 335.75, 336.25, 336.25, 336.25, 336.5, 336.25, 336, 335.5, 335.25, 335.5, 334.5, 335, 335.25, 335.5, 335.5, 335.75, 336.25, 337, 337, 337.5, 337.5, 337.5, 337.25, 337.5, 337.5, 337.5, 337.25, 337.5, 336.5, 336.5, 336.5, 335.75, 334.75, 335, 335, 335, 335.75, 336.5, 336.25, 336.25, 336.75, 337.5, 337.25, 337, 336.5, 336.25, 336, 335.75, 336.25, 337, 336.5, 336.5, 336.25, 336.5, 336.25, 336.25, 336, 336.25, 336.5, 336.75, 336.25, 336, 335.75, 335.25, 335.75, 336.25, 337, 336.75, 336.25, 336.5, 336.75, 336.5, 336.75, 336.5, 336.75, 337.25, 337.5, 337, 336.5, 336.5, 336, 335.75, 336, 335.5, 335, 334.75, 334.25, 335, 335.75, 336.25, 336.5, 336, 335.5, 335.75, 335.75, 335.75, 335.5, 335.75, 335, 334.5, 333.75, 334, 334.25, 334.75, 335, 335, 335, 334.75, 334, 333.25, 332.5, 331.75, 331.5, 330.25, 329.25, 327.5, 326, 323.75, 320.5, 317.25, 313.25, 308.25, 301.5, 294.25, 285.75, 277.75, 267.75, 259, 250.75, 243.75, 238, 232, 227.5, 221.75, 217.5, 213, 209.75, 206.5, 203.25, 200.25, 199, 197, 196, 194.5, 191.75, 189.75, 188.25, 187.75, 187, 185.75
351, 351, 350.25, 350, 349, 348.75, 348, 347.5, 347, 346.25, 345.5, 344.75, 343.25, 343, 342.25, 341.5, 339.25, 338.75, 337.75, 335.5, 332.75, 330.25, 329, 326.75, 324.5, 321, 318, 316.25, 312.5, 309.25, 303.75, 298.75, 292.5, 285.75, 281, 274.25, 267.75, 261, 256, 251.25, 246.5, 239, 232.5, 227.5, 223.25, 217, 212.25, 206.5, 204, 200.75, 199.25, 198.25, 198.75, 198, 194.5, 192.5, 192.25, 190.5, 191, 192, 191, 190, 188.75, 186.5, 185.5, 183.75, 184.75, 184.75, 184.75, 184, 183, 182.25, 182.25, 182.75, 182.5, 182.25, 181.25, 180, 181.75, 183, 183.75, 183.75, 181.5, 180.75, 180.5, 179.75, 178.5, 179.5, 179.25, 177.5, 176.5, 176.75, 178, 177.5, 177.75, 176.5, 177, 178.5, 179.25, 177.25, 178, 176.5, 177, 176, 177, 178.25, 178.25, 176.25, 175, 175.25, 176, 177.5, 177.75, 177.75, 177, 177.25, 177, 175.25, 176, 175.25, 177.5, 178.25, 178.5, 178.5, 178.5, 178.75, 178.75, 179, 179.75, 179.25, 178.25, 178.75, 178, 178.75, 177.75, 178.5, 180, 179.75, 178.75, 178.25, 179.25, 180, 178.75, 178.75, 179.25, 180.25, 179.25, 179.75, 179.5, 178.5, 178.75, 179.75, 181, 181.25, 181.75, 180.5, 179.5, 180, 180.5, 180.75, 181.25, 182, 182.25, 182.75, 182.25, 181.5, 181.75, 183.5, 184, 183.75, 183, 183, 182.5, 182.75, 183.5, 182.5, 182.75, 183.25, 183.75, 184, 185, 185.75, 186.75, 187.5, 187.25, 186, 185.25, 184.5, 184.75, 186.5, 186.25, 187.25, 187.5, 189.5, 190.25, 191.25, 191.75, 191.75, 192.75, 192.5, 192, 192.5, 194.5, 194.5, 195, 195, 195.25, 196.25, 197.5, 198.75, 200, 201.75, 203.5, 205.75, 206.5, 207.75, 209.5, 212, 214.5, 217.25, 221.5, 225.75, 230, 233.75, 239.75, 246.5, 253.25, 260.75, 268.25, 275.75, 285.25, 293.25, 300.5, 307, 312.75, 317.5, 320.75, 323.25, 325.75, 327.25, 328.75, 329.5, 331.25, 333, 333.75, 333.75, 333.5, 333.75, 334, 334.25, 334.25, 334.25, 334.75, 335.25, 336.25, 336.75, 337.25, 338, 338, 337.5, 337.5, 338, 338.5, 338.75, 339, 339, 338.5, 337.75, 338, 337.5, 337.25, 337.75, 338, 338, 338, 339, 338.75, 338.75, 338, 337.5, 337.5, 337, 337.5, 337.25, 337.25, 337.75, 337.5, 338.25, 339, 339.5, 340, 339.5, 339.75, 339.75, 339.75, 339.75, 339.75, 339.75, 339.75, 339.75, 339.75, 339.5, 338.75, 338.25, 338.25, 338, 338.25, 338.5, 338.75, 339, 338.75, 338.75, 339, 339.25, 339.25, 339, 338.25, 338, 337.75, 337.25, 337.75, 338.25, 338.75, 339, 339, 338.5, 338.25, 338, 338.25, 339, 339.25, 339.25, 339, 338.75, 338, 337.75, 338, 338.5, 338.5, 339.5, 339.25, 339, 338.75, 339, 338.5, 338.5, 338.75, 339.25, 339.5, 339, 339.25, 339, 338.75, 338.25, 338, 337.75, 337.5, 336.75, 336.5, 337, 337.75, 338.75, 338.75, 338, 337.25, 337.75, 337.75, 337.75, 337.5, 337.75, 337.5, 336.25, 336.25, 336.5, 337, 337.25, 337.75, 337.5, 337.5, 336.75, 336.25, 335.5, 334.75, 334, 333.25, 332.25, 331.25, 330.75, 328.75, 326.5, 323.25, 320, 316.75, 311.75, 305, 297.25, 289.5, 280, 271, 261.75, 253.5, 246.25, 239.75, 235, 229.25, 224.25, 219.5, 215.75, 211.75, 209.25, 206.75, 203.25, 201, 199.5, 198, 196.25, 194.25, 192.5, 191.75, 190.75, 189.25, 187.75
354, 353.25, 352.5, 351.25, 351, 350.75, 350.25, 350, 349.5, 348.5, 348.25, 347.75, 347.25, 345.75, 345.75, 344.5, 343, 341.5, 340.5, 338.5, 336.5, 333.75, 332.5, 330.75, 328, 325, 322, 319.75, 318.25, 314.5, 310, 304, 297.5, 291.75, 285.5, 280.75, 273.25, 266.5, 260.5, 256.25, 250.25, 243.5, 237.25, 233.5, 227.75, 223, 216, 211.75, 206.25, 204, 201.75, 200.75, 200.25, 200, 197.75, 194.75, 193, 193.5, 192.75, 192.5, 193.25, 192.75, 191.25, 190.25, 188, 187.75, 187, 188, 188.25, 187.25, 186.5, 185.25, 184.25, 185.25, 185.25, 184.75, 183.25, 183.25, 183.25, 185, 184.5, 183.25, 184.25, 182.5, 182.5, 181.5, 181.25, 181.5, 181.75, 180.5, 179.25, 179.5, 180, 179.5, 179.25, 178.75, 179.5, 181.25, 179.5, 179, 178, 178.5, 177.5, 178.25, 178.75, 179.5, 179.5, 179.25, 177.75, 178, 179, 179.25, 180.25, 179.5, 179.75, 179.75, 179, 178, 177.75, 177.25, 178.25, 179.25, 179.5, 179.5, 180, 180.25, 180.75, 180.75, 181.25, 180, 180.5, 180.25, 180, 179.25, 181.5, 181.75, 182, 182, 181.25, 181.5, 182, 180.75, 180.5, 179.5, 181.25, 181.25, 181.75, 182.25, 182.25, 182.5, 182, 182.75, 182.75, 183, 183, 182.25, 181.75, 181.25, 182.5, 183, 184, 183.75, 184.25, 185, 184, 184.5, 185, 185.5, 186.25, 186, 185.5, 184.25, 184.75, 185, 185.5, 185.5, 185.75, 185.25, 185.5, 186, 187, 187.5, 188.75, 189.25, 188, 187.5, 187.25, 187.5, 188.25, 188.75, 188.5, 188.75, 191, 191.75, 193.25, 193.25, 194.25, 195, 195.25, 195.75, 195.5, 195.5, 196.5, 197.25, 197.75, 197.5, 198.25, 199.25, 199.75, 200.75, 203.25, 205, 206.5, 208, 209.25, 210.75, 213, 214.25, 216.75, 220.75, 223.75, 229.25, 233, 237.75, 242.75, 249.75, 257, 264.25, 271.75, 279.75, 288.25, 297.25, 304.25, 310.25, 316, 320.75, 324.5, 327, 329.25, 331, 331.75, 333, 334.25, 335.5, 336, 336, 335.5, 335.5, 336.25, 336.75, 336.75, 336.25, 337, 338.25, 339, 339, 339.25, 340, 339.75, 339.75, 340, 340.25, 340.75, 340.75, 341.5, 341.75, 341.25, 341, 340, 339.75, 339.5, 339.75, 339.75, 339.75, 340.5, 340.75, 341.25, 340.75, 340, 339.5, 339.25, 339.75, 339.5, 339, 339, 339.5, 339.5, 340.25, 341, 341.75, 342, 342.75, 342.5, 342, 342, 342.25, 342.25, 342.5, 342.5, 341.75, 341.5, 341.75, 341, 340.75, 340.5, 340.75, 341.25, 341.5, 341.75, 342, 341.5, 341.25, 341.25, 341.25, 341, 340.5, 340.5, 340.25, 339.75, 339.25, 339.5, 340, 340.75, 341, 340.75, 340.5, 340, 340, 340.25, 341.25, 342, 341.75, 341.5, 341, 340.5, 340, 340, 340.25, 341, 341.25, 341.75, 341.5, 341.5, 341.25, 340.75, 341, 341.25, 341.5, 341.75, 341.75, 341.25, 341, 341.25, 341, 340.25, 340.25, 340.25, 339.25, 339, 339.75, 340, 341, 340.5, 339.5, 339.5, 339.25, 339.75, 339.75, 339.75, 339.75, 339.75, 339.25, 338.75, 339.5, 340, 340, 339.75, 339.5, 339.25, 339, 338.25, 338, 337.25, 336, 335.75, 335.25, 334, 333, 332.25, 329.75, 326.5, 323.25, 319.75, 315, 308, 300.75, 292, 283.5, 274.25, 265.25, 256.25, 249.75, 243.25, 237.25, 232.75, 227.5, 222, 217.75, 214.25, 212.75, 210.75, 206.75, 203.25, 201.5, 199.75, 198, 196.5, 195.5, 195.25, 194.25, 192.5, 191.25
358.5, 357.25, 355.25, 354.5, 353.5, 354.75, 354, 353.25, 351.75, 352.25, 351.5, 350.5, 349.75, 349.25, 348, 347, 345.5, 344.5, 343.5, 341.75, 339.25, 337.25, 336, 334.25, 331.25, 327.75, 325.5, 324, 321.75, 319, 315, 309.25, 302.75, 297, 291.5, 285.25, 279, 271.5, 266, 260.5, 253.5, 246, 241.25, 237, 232.75, 226, 221, 215.5, 211.75, 206.25, 205, 204, 202.5, 201, 200.5, 197.75, 196.75, 196.75, 195.5, 194.75, 195, 195.25, 194.75, 193.25, 191.75, 189.75, 190.75, 191.75, 192, 191.75, 189.5, 188.5, 187, 186.25, 187.25, 186.25, 186.5, 185.75, 185.25, 185.25, 184.75, 185.25, 184.25, 185.25, 183.75, 184.5, 183.25, 184.75, 183.75, 183, 181.5, 181.75, 182.75, 182.25, 181.5, 181.5, 182, 181.25, 181.25, 179.5, 180, 180, 179.5, 179, 181, 182, 182.25, 181.5, 181.25, 181, 181.25, 182, 181.75, 181.5, 181, 180.75, 181, 181, 179.5, 179.75, 180.25, 179.75, 180.25, 180, 180.75, 182, 182.75, 182.5, 182, 181.75, 181.5, 181.5, 181.5, 183, 183.5, 184.5, 184.25, 184.5, 184, 183.25, 183.75, 183.5, 182, 183, 183.5, 184.25, 183.75, 185, 185.25, 185.5, 185.25, 184.75, 185.25, 185.5, 184, 183.75, 183.25, 184.5, 185.5, 186.5, 186.25, 187, 187, 186.75, 187.25, 186.5, 188.5, 187.75, 187.5, 187.75, 187, 186.25, 185.5, 186.5, 187.75, 188.25, 188, 187.5, 187.5, 188, 188.75, 189.25, 189.5, 189.75, 189.5, 188.75, 189, 189.75, 191.5, 191.5, 192, 192.25, 192, 194.75, 195, 195.25, 195.75, 196.75, 198.5, 198.75, 198.5, 198.5, 198.75, 200.5, 200.25, 200.25, 201.25, 202, 203.25, 203.75, 205.5, 207.75, 209.25, 210.5, 212, 213.25, 215.25, 217.5, 220.75, 222.5, 227, 231.25, 236, 240.25, 246.5, 253, 259.75, 267.25, 275, 283, 292.25, 301, 308, 314.25, 319.75, 324.5, 327.5, 330.25, 332, 333.75, 334.75, 335.75, 336.75, 337.5, 338, 337.75, 337.5, 337.75, 338.75, 339.5, 339.5, 339.5, 340.25, 341.25, 341.5, 341.75, 342, 342, 342, 342, 342, 342.5, 342.25, 343, 343.5, 343.75, 343.5, 343.25, 342.5, 342, 341.5, 341.5, 341.5, 342, 342.5, 342.75, 343.5, 342.75, 341.75, 341.25, 341.75, 342, 341.5, 341.25, 341.25, 341.25, 341.5, 342.5, 343, 344.25, 344.25, 344.75, 344.25, 343.75, 344, 344.5, 344.5, 344.25, 344.25, 344, 343.25, 343.25, 343.25, 342.75, 343, 343, 343.5, 343.75, 344, 344.25, 343.75, 343.75, 343.75, 343.5, 343, 343, 342.75, 342.75, 342, 342, 341.75, 342.25, 343, 342.5, 342.25, 341.5, 341.5, 341.5, 342.25, 343, 343.75, 343.75, 343.75, 343.25, 342.75, 342.25, 341.75, 342.5, 342.5, 343, 343.75, 344, 344.25, 344, 343, 343.25, 343.5, 343.75, 343.75, 343.25, 343, 343.25, 343.25, 343, 343, 342.75, 342.25, 341.75, 342, 342.25, 342.5, 342.75, 342.5, 341.75, 341, 341.25, 341.5, 341.75, 341.5, 341.75, 342, 341.75, 342, 342.25, 342.75, 342.25, 341.75, 341.5, 341.5, 340.75, 340.75, 340.25, 339.75, 338.75, 338, 337.75, 336.75, 335.5, 335, 332.75, 329.75, 326.5, 323.25, 317.75, 311.25, 303.25, 296, 286.75, 277.75, 267.75, 259.75, 252.5, 246.25, 241, 235.5, 230.25, 224.5, 220.25, 217.5, 215.25, 212.75, 209.5, 206, 203, 200.75, 199.25, 198.75, 197.5, 197.5, 197.5, 196.5, 194.5
365.75, 363.25, 361.5, 359.25, 359, 358.5, 358, 356.75, 356, 355, 354, 353.5, 352.75, 352, 350.75, 349.5, 348.25, 347.5, 346.25, 344.5, 342.75, 341.5, 339, 337.25, 335.25, 332.75, 329.75, 327.25, 326, 322.5, 318.75, 313.75, 307.75, 302.25, 297.25, 291, 284.75, 278, 271.5, 265, 257.5, 251, 245.5, 241.25, 236.25, 230.25, 224.5, 221.25, 216, 211.25, 209, 207.75, 205.5, 204, 202.5, 202.75, 200.25, 199, 198.5, 198.5, 198.25, 198.25, 197.5, 195.5, 193.75, 194, 194, 195.25, 195.75, 194.25, 192.75, 190.5, 190, 189, 187.75, 189.25, 188.25, 189, 188.25, 185.75, 186, 185.75, 186, 186.25, 187.5, 185.25, 186.25, 186.25, 186.75, 184.75, 184.25, 184.5, 185, 185.5, 184, 184.25, 183.25, 183, 182, 182, 181.5, 183.25, 182.5, 181.75, 183.5, 184.25, 184.5, 184.5, 184.5, 184.75, 184.5, 184.25, 183, 183, 183, 182.5, 183.5, 183.25, 181.75, 182, 182, 181.5, 182, 182.25, 182.25, 183.5, 184, 184.5, 182.75, 182.75, 183.25, 183.75, 185, 185, 185.75, 185.75, 187.25, 186.5, 184.75, 184.5, 185.25, 185.25, 186, 186, 187.25, 186.25, 186.75, 187.25, 188.25, 187.75, 187.75, 187.5, 187.25, 187, 187.25, 186.75, 186.75, 187.5, 188.5, 189.25, 189.5, 189.75, 189.75, 190.25, 189.75, 190, 189.75, 190.5, 189.5, 189.25, 189.5, 188, 188.75, 188.75, 190, 190.5, 189.75, 189.75, 189.75, 189.75, 190.25, 190.75, 191, 191, 191.25, 191, 191.5, 193, 194, 195, 195.5, 194.5, 195.5, 195.75, 196.75, 196, 197, 199.5, 200.25, 201.5, 201.5, 202, 202, 202.5, 203.5, 203.75, 205.75, 205.75, 206.5, 207.75, 208.5, 210.75, 212, 212.25, 214.25, 216, 218, 221.5, 223, 226.25, 229.25, 234.25, 238, 243, 249.5, 256.25, 263, 271, 278.5, 286.75, 296.25, 305.5, 311.5, 318.25, 323.25, 327.75, 331.25, 333.75, 335, 336.25, 337.5, 338.25, 339, 339.5, 340, 340.25, 340.5, 340.75, 341.75, 342.5, 342.75, 343, 343.75, 344, 344.25, 344.25, 343.75, 343.75, 344, 344, 344.25, 343.75, 344.25, 344.5, 345.5, 345.5, 345, 345, 344.75, 343.75, 343.5, 343.75, 344.25, 344.25, 344.5, 344.75, 344.75, 344.5, 343.75, 343.25, 343.25, 344.25, 343.75, 343.75, 343.75, 343.75, 344, 344.25, 345.5, 345.75, 346.5, 346.25, 346.25, 346.25, 345.75, 346, 346.5, 346.5, 346.25, 345.5, 345.25, 345.25, 344.75, 345, 345, 345.25, 345, 345.5, 345.75, 345.5, 345.75, 345.5, 345.25, 344.75, 344.75, 345, 344.75, 344.75, 345, 344.75, 344.5, 344.75, 344.25, 344.25, 343.75, 343, 342.5, 342.75, 343.75, 344.5, 345.25, 345.5, 345.25, 345.5, 345, 344.5, 344.25, 344, 345, 345.25, 346, 345.75, 346.25, 345.75, 345.5, 345.25, 345.25, 345, 344.25, 344.25, 344.5, 344.75, 345, 345, 345.25, 345, 344.5, 344.25, 344.25, 344.75, 345, 345, 344.5, 344, 343.5, 343.25, 343.75, 344, 344.25, 344, 343.75, 344, 344, 345, 345, 344.5, 343.75, 344, 344, 343.25, 342.5, 342.75, 342, 341.25, 340.25, 339.75, 339.25, 338, 337.25, 335.5, 332.75, 330, 326.25, 321, 314, 307.25, 299, 290.5, 279.25, 270.75, 262, 255, 248.25, 243.5, 238, 233, 228.25, 223.25, 219, 217.5, 214.75, 211, 207.75, 205.25, 202.5, 201, 200.25, 200.25, 200, 199.75, 199.5, 198.25
374.25, 372.25, 369, 366.5, 364.75, 363.75, 362.5, 361, 359.5, 358, 358, 356.75, 355.75, 355, 354.5, 352.75, 351.75, 350.5, 349, 347.5, 345.75, 344, 342.25, 341.25, 339.5, 337, 333.75, 332.5, 329.75, 326.75, 321.75, 317.5, 312.5, 307.5, 302.5, 297, 289.75, 284, 277.75, 271, 263.75, 256, 249.75, 245.5, 240.25, 233.5, 229.25, 225.5, 220.5, 216.25, 213.25, 210.75, 209.5, 207, 206, 204.75, 205, 202, 201.5, 201.75, 200.75, 200.5, 199.25, 197.5, 196.5, 195.5, 195.25, 197.5, 197, 196.75, 194.75, 193, 191.75, 190.75, 192.25, 191.5, 192.5, 192, 191.25, 189, 186.75, 187.5, 187.75, 190, 189, 189, 188, 189, 187.75, 187.25, 187.25, 187.5, 188.25, 188.5, 187.75, 186.25, 185.75, 184.5, 184, 183.75, 185.25, 186, 184.5, 184.25, 184.5, 186.5, 186.75, 186, 187.5, 187.75, 188, 186.75, 185.75, 185.5, 185.5, 186.75, 186.25, 184.5, 184, 185.25, 184.5, 185.5, 185, 185, 185.75, 185.25, 186.25, 185.75, 184.75, 184, 185, 186.5, 186.75, 188, 188.25, 188.5, 188.25, 187.25, 186.5, 186.75, 186.75, 188, 188, 189.5, 189.5, 189, 188.25, 189.25, 190, 190.5, 189.5, 189.5, 189.75, 190.5, 190.75, 190.25, 189.75, 191, 191, 191, 192, 192, 193.5, 192.5, 192, 192.25, 192.25, 191.5, 191.25, 191.75, 192, 192, 191.25, 191.75, 192.5, 193, 192, 191.5, 191.75, 192.75, 192.75, 193, 193.5, 194, 194, 194, 196, 196.5, 197.25, 198.75, 196.75, 197.25, 198, 198.75, 198, 198.75, 199.75, 201.25, 203, 203.5, 204.25, 204.25, 204.75, 206, 206, 208.25, 208.25, 209.25, 209, 210.25, 211.25, 212.25, 214.25, 215.25, 216, 219, 221.5, 223.5, 226.75, 229, 233, 236, 241.25, 246.75, 252.75, 260, 267.25, 274.25, 281.75, 290, 300, 308.25, 315.5, 321.5, 326.75, 331, 334.25, 336.5, 338, 339.25, 339.75, 340.5, 341.25, 342, 342.5, 343, 343.5, 343.5, 344.25, 345, 345.5, 345.75, 345.75, 346.5, 346.5, 345.5, 345.25, 345.5, 345.75, 346, 346, 346.5, 346, 346.5, 346.5, 347.25, 347.25, 346.5, 346.5, 346.25, 346, 346.5, 346.25, 346.5, 346.25, 346.5, 346.5, 346.25, 345.75, 345.25, 346, 346.25, 347, 346.5, 346.5, 347, 346.5, 347, 347.5, 348, 348, 348, 348, 347.75, 347.5, 347.75, 347.75, 348, 347.75, 347.5, 347.25, 347.5, 347.25, 347.25, 347.25, 347, 347.25, 347.25, 347.5, 347.75, 347.25, 347.25, 346.25, 346.25, 346.5, 346.75, 347, 347.25, 347.5, 347.25, 347, 346.75, 346.25, 346, 345.5, 344.75, 344.5, 344.5, 345.25, 345.75, 346, 346.25, 347.25, 347.5, 347, 346.5, 346.25, 346.25, 346.75, 347.75, 347.75, 347.75, 347.5, 347.5, 347.25, 346.5, 346, 345.5, 344.5, 344.5, 345, 346, 346.5, 346.75, 346.75, 347.25, 347, 346.25, 346.25, 347, 347.5, 346.75, 346.25, 346, 345.75, 346, 346, 346.25, 346.5, 346.75, 346, 346, 346.25, 346.5, 347, 346.75, 346.75, 346.25, 346.25, 345.75, 344.75, 344.25, 344.25, 343.5, 342.75, 342.25, 341.5, 340.5, 339.25, 337.75, 335.5, 333.25, 329.5, 323.75, 317.25, 310.25, 302.5, 293.25, 283, 273.25, 265.25, 258, 251.5, 245, 240.25, 236.25, 231, 225.25, 222.25, 220.25, 217.75, 213.25, 209.75, 207.5, 205.5, 204.25, 202.5, 202.25, 201.75, 201, 201, 200.5
384, 381, 378.25, 375.25, 372.75, 370.5, 368.25, 366.75, 365, 363.75, 362.25, 361, 360, 360, 357.75, 357.25, 355.25, 353.5, 352, 350.5, 348.5, 346.5, 345.5, 344.25, 343, 341, 338.75, 336.25, 334, 329.75, 326.5, 321.5, 317, 312.75, 308, 301.5, 295.75, 290.25, 284, 277.5, 269.5, 260.75, 255.25, 250.5, 243.5, 237, 232.5, 228.75, 224, 219.75, 216, 213.75, 211.25, 210.5, 209.5, 209.25, 206.25, 205, 204.75, 204.75, 203.75, 201.75, 200.5, 198.75, 197.5, 196.75, 197.5, 196.25, 198.25, 196.75, 196.5, 194, 193.75, 194.5, 194.25, 195, 195.5, 195.5, 193.25, 191.75, 190, 190, 191.25, 191, 192.5, 191, 191.25, 191.25, 191.75, 190, 188.75, 190.5, 190.75, 191.5, 190.5, 189.25, 187.25, 186.25, 186.25, 187.75, 188.25, 187.25, 186.75, 185.75, 186.75, 188, 187.75, 187.75, 188.75, 190.75, 190, 189, 189, 189, 188, 189.25, 189.25, 187.25, 187.25, 187.25, 189, 189.25, 189.75, 189.25, 189, 189, 188.25, 188.25, 187.25, 187, 187.5, 189.5, 189, 189, 190.5, 191, 190, 188.25, 188.75, 189.25, 190, 189.5, 190.75, 191, 191.25, 190, 191, 191.5, 192, 192, 191.5, 191.5, 192, 194, 193.75, 193, 192.75, 192.25, 193.25, 193.75, 193.75, 194.25, 195.75, 195.75, 194, 194.5, 194.5, 194.5, 193.75, 193.75, 195.25, 195, 194, 194, 195.75, 195, 194.75, 193.75, 194, 195.25, 196.5, 197, 197, 197.25, 198, 199.75, 200, 200.5, 200, 200.5, 201.25, 200.25, 201.25, 201.25, 202.5, 202, 202.75, 204, 205.75, 206.25, 206, 206.25, 208.25, 208.5, 209.75, 210.5, 211.75, 211.75, 212.25, 212.25, 213.25, 214.5, 216.5, 217.75, 219, 221.75, 224, 226.5, 228.75, 232.75, 235.75, 240, 244, 249.5, 256.5, 263.5, 270, 277.25, 285, 293.5, 302, 311, 318.5, 324.25, 329.5, 334.25, 337, 338.75, 340.5, 341.25, 342.25, 343, 343.5, 344.25, 344.5, 345.5, 345.75, 345.5, 346, 347.25, 347.25, 347.5, 348, 348.25, 348.25, 347.25, 346.75, 347, 347.75, 348.25, 349, 348.75, 348.75, 348.5, 348.75, 349, 349, 348.75, 349, 348.75, 348.5, 348, 348.5, 348.5, 348, 348, 348.25, 348.25, 347.5, 347.75, 348.25, 349, 349.5, 349.5, 349.5, 349.5, 349.5, 349.25, 349.75, 350.25, 350, 350, 349.75, 349.25, 349.25, 349.5, 349.5, 349.5, 350, 349.5, 349.25, 349.25, 349.25, 349, 349, 349.25, 349, 349.5, 349.75, 349.75, 349.5, 348.75, 348.5, 348, 348.5, 348.75, 349.25, 349.5, 350, 349.75, 349.5, 348.5, 348.25, 347.75, 347.25, 347, 346.75, 346.75, 347, 347, 347, 347.5, 348.5, 349.25, 349, 348.5, 348.5, 348.5, 348.75, 349.25, 349.75, 349.5, 349.25, 349, 349, 348.25, 347, 345.75, 345.25, 345, 346.25, 347.5, 348, 348.5, 348.75, 349.25, 349, 348.25, 348.5, 349, 348.75, 348.75, 348.5, 348, 348, 348, 348, 348.25, 348.75, 348.75, 348.25, 348, 348.25, 348.75, 349, 349.25, 349, 348.5, 348.5, 347.75, 347.25, 346.25, 346, 345.25, 345, 344.5, 343.5, 342.5, 341, 339.25, 337.5, 335.5, 332, 326.75, 319.75, 313.25, 305.75, 296.75, 287, 277.25, 269, 261.75, 254, 247.5, 242.5, 237.5, 233.5, 228.75, 225.75, 223, 220, 216.5, 214, 211.25, 208.75, 207.25, 206, 204.25, 202.75, 202.25, 202.25, 201.5
391.75, 389.5, 387, 384.5, 381.75, 379, 377.25, 374.75, 373, 370.75, 368.5, 366.75, 366.25, 364.25, 363.25, 361.25, 360, 357.25, 356, 353.75, 352, 350.25, 348.75, 347.75, 347, 344.75, 341.75, 340, 337, 333.75, 329.75, 325.75, 321.5, 318.25, 312.5, 307.5, 301.25, 295.75, 288.75, 282.25, 274.75, 267, 261.25, 254.25, 247, 240.5, 234.5, 231.25, 227.5, 222.75, 218.25, 216.25, 214, 212.25, 213, 211, 209.25, 207, 206.75, 206.5, 206.75, 204.75, 202.75, 201, 199, 199.5, 198.75, 199, 197.5, 198.75, 196.25, 197.25, 196, 196, 195.5, 197.25, 198.75, 198, 196.25, 194.75, 193, 192.5, 193.25, 194.5, 193.5, 194.75, 194.25, 193.25, 192.75, 191.75, 192.5, 191.75, 193, 192.25, 192.5, 190.75, 189.75, 188.75, 189, 190, 190.75, 190, 188.5, 188.75, 189, 190, 190.25, 189.25, 191.5, 192.25, 192.75, 192.5, 191.75, 191, 192.25, 192, 191, 190.5, 189.5, 191, 192.75, 192.5, 192, 193.5, 192.5, 191.5, 191.25, 191, 191, 190, 192.25, 192, 192.5, 191.5, 191.75, 192.75, 191.75, 191.75, 191.25, 191.5, 192.75, 193, 191.75, 192, 191.5, 192.25, 192.75, 194, 194.25, 194.25, 193.5, 193.75, 195, 195.75, 195.5, 194.75, 195, 195, 195.25, 196, 196.5, 197.75, 197.75, 197.75, 197.5, 196.75, 198.25, 197, 196.5, 196.75, 197.75, 196.75, 196.75, 196.75, 197.25, 198, 197.25, 197, 196.5, 198, 199, 200, 201.5, 202, 202.25, 202.75, 203, 203.5, 203.25, 202.75, 203.75, 204.75, 204, 205.75, 205, 205.25, 205.75, 207.25, 208.25, 208.75, 208.5, 210.25, 210.5, 211, 212.25, 214.5, 214.5, 215, 214.75, 215.5, 216.25, 218, 219, 220.5, 222.75, 224.5, 226.25, 228.25, 231, 234.5, 238.25, 242.25, 246.5, 251.5, 258, 266.25, 273, 279.75, 287.75, 296, 304.75, 313.25, 321.5, 327.5, 333, 336.25, 339.25, 341.5, 342.75, 343.75, 345, 345.75, 346, 346.25, 346.75, 347, 347.75, 347.5, 348.25, 349, 349.25, 349.5, 350, 350.75, 350, 349.5, 349, 349.25, 349.75, 351.25, 351.25, 351.25, 351, 351, 351.25, 351, 351.5, 351.75, 351.25, 351, 350.75, 351, 350.75, 350.5, 350.25, 349.75, 350.25, 350.25, 350, 349.75, 350.5, 351.5, 351.75, 351.75, 351.5, 351.5, 351.5, 351.75, 352, 352.25, 351.25, 351, 350.75, 350.5, 350.5, 350.5, 350.75, 351.5, 351.75, 351.25, 351.25, 351.5, 351.25, 351, 351, 351, 351.25, 351.5, 351.75, 351.75, 351.25, 351.25, 350.5, 350.25, 350.5, 351, 351.25, 351.75, 351.5, 352, 351.25, 350.75, 350, 349.75, 349.5, 349.25, 348.75, 349, 348.75, 348.5, 348.5, 349, 349.75, 350.5, 351, 350.75, 350.25, 350.5, 350, 351.25, 351, 351.25, 350.75, 351, 350.5, 350.25, 348.75, 347.5, 346.75, 347, 347.75, 349, 349.25, 349.75, 350.5, 350.75, 350.75, 350.75, 350.5, 350.5, 350.5, 350.5, 350.75, 350.25, 350, 349.75, 349.75, 350.25, 350.25, 350.5, 350.25, 349.75, 350, 350.75, 351, 351.25, 350.75, 350.75, 349.5, 349, 348.75, 348.75, 348.25, 347.25, 346.75, 345.75, 345, 343.25, 341.75, 340, 338.5, 336.75, 333.75, 329, 322.25, 315.5, 308.25, 299.5, 290.25, 280.75, 272.5, 264.25, 256, 249.75, 244.75, 240.25, 235.5, 232, 227.75, 225.75, 223, 220, 217, 214.5, 212.5, 210, 209.25, 206.25, 204.75, 204.75, 203.75, 203
398.5, 396.75, 394.75, 392.75, 390, 388.5, 386.5, 384.5, 381.75, 379.25, 376.75, 375, 372.75, 371.25, 369.25, 367.5, 364.25, 363.5, 360.5, 358.5, 356.25, 354.25, 352.5, 351.75, 351.5, 348.75, 346.75, 343.5, 341.25, 338, 334.25, 331, 328.25, 323.5, 318, 312.25, 306.25, 299, 293.75, 287, 278.5, 272.25, 266.25, 259.75, 251.75, 243.75, 238, 234, 231, 225, 222.5, 219.75, 216.5, 215.5, 214.75, 213.75, 210, 208.75, 208.5, 209, 208.5, 207.75, 205.25, 203, 203.25, 202.75, 202.25, 200, 200.5, 199.75, 200.5, 199.5, 198.75, 197.75, 199, 199.5, 200.5, 200, 199.75, 197.5, 197, 195.25, 194.75, 195.75, 196, 197, 196, 196.25, 194.25, 194, 193.75, 194.5, 194.25, 194.25, 193, 193.25, 191.5, 191.25, 192.25, 193.5, 193.25, 192.5, 191.75, 190.5, 192.5, 192.25, 191.5, 192.5, 192.75, 194.75, 195.5, 195, 194.25, 193.25, 194.25, 194, 192.75, 192, 191.75, 193, 195.25, 194.75, 194.75, 194.75, 195, 193.75, 193.5, 194, 194.5, 195.25, 195.75, 196, 195, 195, 194.75, 194.25, 195, 194.75, 194, 195, 195.5, 195.25, 193.25, 192.5, 193.75, 193.75, 194.75, 196.25, 198, 196.5, 197, 197.5, 198, 199, 198, 196.5, 197, 198.25, 199.5, 198.5, 200.25, 200.5, 200.5, 200, 199.75, 199.5, 200.75, 200.5, 199.5, 200.25, 200.25, 199.5, 199.25, 199.75, 200.5, 200.5, 200, 199, 200.5, 200.5, 201.25, 202, 204.75, 205.75, 204.75, 204.5, 204.5, 204.5, 205.25, 206, 206.5, 207, 207.5, 208.25, 208.75, 208.25, 207.75, 209.25, 211, 212.5, 213.25, 213, 213.75, 214.25, 216.25, 216.5, 218.25, 217.5, 218.5, 219.25, 219.75, 220.75, 222, 223.5, 226, 227.5, 229.5, 231, 233.5, 236.75, 241, 243.75, 248.75, 253.5, 260.5, 267.75, 275.25, 283, 291.25, 299.25, 308, 316.5, 324, 331.5, 335.75, 339, 341.75, 343.25, 344.5, 346.25, 347.5, 348, 348.5, 348.5, 349, 349.75, 349.5, 350.25, 350.25, 350.75, 351.5, 351.75, 352.75, 353, 352.5, 351.5, 351.25, 351.75, 352.5, 352.75, 353.5, 353.5, 353.5, 353, 353.5, 354, 353.75, 354.25, 353.75, 353.5, 353.75, 353.5, 353.25, 352.75, 352.25, 352, 352.25, 352.25, 352.25, 352.25, 352.75, 353.75, 354, 353.5, 353.25, 353, 353.25, 353.5, 353.5, 353.25, 352.75, 352.25, 351.75, 351.5, 351.25, 351.5, 352, 352.75, 353.25, 353, 353.25, 353.5, 353.25, 353.25, 353, 353.5, 353.5, 353.5, 353.75, 353.5, 353.5, 353.25, 353.25, 353, 353, 353, 352.75, 353.25, 353.5, 353.5, 353.75, 352.75, 352.25, 351.75, 351.75, 351.5, 351.25, 350.75, 350.75, 350.25, 350.25, 351, 351.5, 352.5, 352.5, 352.5, 352.25, 351.75, 352.25, 352.25, 352.75, 352.25, 352.25, 352.25, 352.5, 352, 351, 350, 349.5, 349.5, 350.5, 350.5, 351, 351.25, 352, 352.5, 352.5, 352.25, 352.25, 352.5, 352.5, 352.75, 352.5, 352.5, 352, 351.75, 351.5, 351.5, 351.5, 351.5, 351.75, 351.75, 351.75, 352.25, 353, 352.75, 352, 351.25, 350.75, 350.5, 350, 350, 349.75, 349.25, 348, 347.25, 345.75, 344, 342.25, 340.5, 339.25, 337.75, 335.5, 330.75, 324.5, 317.75, 310.75, 302, 292.25, 283.25, 274.5, 266.5, 258.75, 252.5, 248.25, 243.5, 238.5, 234, 230.25, 228, 225.5, 221.75, 220, 217.5, 215, 213.5, 211.5, 209.5, 207.75, 206.5, 206, 206.5
403.25, 402, 400.25, 399, 397.25, 395.75, 394.25, 392.5, 390.5, 387.5, 385, 382.5, 380.5, 378.5, 376.5, 373.75, 371.75, 369.75, 367.5, 365.25, 362.5, 359.75, 358, 357.5, 356.5, 355, 351.5, 349.25, 345.75, 343, 339.5, 336.75, 333.25, 328, 322.5, 317.25, 310.75, 304.25, 297, 291, 284.25, 277.75, 271, 263.75, 256.75, 249, 241.75, 237.5, 233.5, 230.5, 226.5, 222.75, 221.5, 219.5, 218, 214.75, 213, 211.5, 211.75, 211.75, 209.75, 209.5, 207.5, 206, 205, 206.75, 205.5, 204, 202.25, 202.5, 203.25, 204.5, 202.75, 201.5, 200.25, 202.5, 202.25, 202.75, 200.5, 199.75, 199, 197.75, 196.75, 196.75, 199.75, 199, 198.5, 198, 197.25, 195.25, 196, 196, 197, 195.25, 195.25, 195, 194.5, 194.5, 195, 195.5, 195, 195.75, 194.75, 195, 195.5, 194.25, 194.25, 194, 196.25, 197.5, 197.75, 196.5, 196.25, 197, 195.25, 195.5, 194.75, 193, 193.5, 195.5, 196, 197.25, 197.25, 197, 196.25, 197, 196.25, 196.25, 197, 198, 199.75, 199.25, 198.75, 197.5, 197.75, 198.25, 198, 197, 197, 197.75, 197.75, 196.75, 195.75, 195.5, 195.5, 196, 198.25, 199.5, 200, 200.75, 200.5, 201, 202, 201.25, 200.5, 199.5, 199.25, 201.25, 201.75, 203.25, 201.75, 202.75, 202, 201.75, 200.5, 201.75, 202.25, 203, 202.75, 202.75, 202.75, 203.5, 203, 202.75, 203.25, 204.5, 203.5, 203.5, 203, 203.5, 203.5, 204.25, 206.5, 207.75, 207.5, 205.5, 206, 205.5, 206.75, 208.5, 208.75, 209.75, 210.75, 211.25, 210.75, 211, 211.25, 212.25, 213.75, 216.25, 217, 216.75, 216.5, 218.75, 218.5, 220.25, 220.75, 221.5, 221.75, 221.75, 223.5, 223, 224.75, 226.25, 228.5, 232.5, 234.25, 235.75, 237.5, 240.5, 243.5, 247.5, 251, 257.25, 263.5, 270.25, 277.75, 286.75, 294.5, 302.5, 311.5, 320.25, 328, 334, 338.5, 342.25, 343.5, 345, 346.25, 348.25, 349, 350, 351, 350.75, 351, 351.75, 352.5, 351.75, 352, 352.25, 353, 354.25, 354.75, 354.75, 354.5, 354, 353.5, 354, 354.5, 354.5, 354.5, 355.25, 355.25, 355.25, 355, 355.25, 356, 356, 356, 356, 356, 355.75, 355.25, 355, 354.5, 354.25, 354.5, 354.25, 354.5, 354.5, 354.75, 355.25, 355.25, 355, 354.5, 355, 354.75, 355, 354.75, 354.5, 354, 353.75, 353.25, 353, 352.75, 353.25, 354, 354.25, 354.75, 354.75, 355, 355.25, 355.5, 355.25, 355.5, 355.25, 355.5, 355.5, 355.5, 355.25, 355, 355.25, 355.25, 355.25, 354.75, 354.5, 354.5, 354.5, 354.5, 355.5, 355.25, 355, 354.25, 354, 353.5, 353.25, 353, 353, 352.75, 352.5, 352.5, 353, 354, 354.25, 354.25, 354.5, 354, 353.75, 353.5, 354, 354.25, 353.75, 353.25, 353.75, 353.75, 353.75, 353.25, 352.75, 352.25, 352.25, 352.25, 353, 352.75, 353, 353.5, 354.25, 354.25, 353.75, 354, 354, 354.25, 354.25, 354.5, 354, 353.5, 353.25, 353.25, 352.75, 352.75, 352, 352.25, 353.25, 353.75, 354, 354.25, 354, 353, 352, 352, 351.75, 351.25, 351.5, 351.25, 350.75, 349.75, 348.25, 347.25, 345.5, 344, 342, 340.5, 339.5, 336.75, 332.5, 326.5, 319.5, 312.5, 304.5, 294.5, 285.5, 276.25, 268.75, 262.5, 256.75, 251, 246.5, 241.25, 236.75, 233, 230, 227.5, 224.25, 222.5, 221, 218.25, 216.5, 214.75, 213, 211.25, 210.25, 209, 208.75
